# .PCD v.7 - Point Cloud Data file format
VERSION .7
FIELDS x y z
SIZE 4 4 4
TYPE F F F
WIDTH 875
HEIGHT 1
VIEWPOINT 0 0 0 1 0 0 0
POINTS 875
DATA ascii
352.81072568349003 1307.1358489537665 445.59720867608223
366.2814639024119 1310.9219049970793 446.887859533942
382.329376230368 1281.5799706614048 436.8853153855288
406.0548467801669 1319.4405310945333 449.7918239641264
434.66001940916976 1370.552287679257 467.2156105452332
607.1599964243848 1807.841760681893 616.2857846280355
666.7875653481755 1931.8350961003891 658.5546002229427
642.4439832377985 1812.574330736034 617.8990982003602
704.3031757678882 1936.5676661545303 660.1679137952673
-934.1268785160487 3290.14105681574 1115.1895920673785
-895.2615442455825 3379.1661746455266 1145.3645551227423
-839.4256557381076 3414.2079763444854 1157.2419341977259
-768.7113500519923 3253.2051036735943 1102.6701925018554
-447.59769735471065 2157.438493789941 731.2613387246656
-439.90199829000625 2223.7337943014845 753.7320558935535
-326.05791559502507 2510.697737944308 850.998160210311
-331.13023082103587 2756.937425558612 934.460823980466
235.60153324746798 1629.9173168623743 552.458632109372
219.31526016481652 1421.5606581118093 481.8363781500101
259.8114927013395 1345.794600384331 456.15555852842397
278.1798037621456 1372.3127205889484 465.1438453959791
282.9580639737023 1332.5355402820223 451.6614150946464
277.6963478167912 1251.0870282249834 424.05453400144125
286.41618455776313 1236.8808924010812 419.23938032239386
300.3198771529999 1245.4045738954226 422.1284725298223
316.2601296431448 1261.5048611625116 427.5856466994094
338.1490912221472 1299.3878900262507 440.42605651020244
349.48955303042317 1295.5995871398768 439.1420155291231
369.71948486322873 1324.0118587876811 448.77232288721797
378.97199454801085 1312.6469501285594 444.92019994398004
379.2233030113621 1271.92269410004 431.11675939737745
402.2681086107679 1307.911571520592 443.3151487176309
433.1591215520939 1366.6302662593876 463.21778392436016
680.1821220259193 1971.8116523576196 668.3433306517795
659.217977578211 1861.0037929311827 630.7851319552097
656.4546217934325 1806.073401078761 612.1665377295598
652.620616235461 1751.1430092263392 593.5479435039099
-848.6036213674396 3593.4302037477883 1211.000978857213
-807.5091508268115 3564.0535327783314 1201.100918112336
-780.4783279985952 3597.220741937396 1212.2784060501003
-373.7797078435613 2879.8613895542007 970.5253097961684
-328.74145210333 2738.663841991326 922.9411468611144
269.1397130070566 1745.5428363141948 588.2552223246272
287.6430578281616 1755.019181788213 591.4487903068456
299.8897523867437 1727.5377799135597 582.1874431584123
302.0468585099316 1565.4922723078446 527.5774306624778
283.9392199891051 1401.5514956073257 472.3287045700997
330.9809464883963 1321.002559078169 445.1833767212434
343.32484261840455 1320.0549245307673 444.86401992302154
355.1099990586902 1317.2120208885617 443.905949528356
373.1575058240456 1337.1123463840004 450.61244229101464
438.238694172475 1470.7288175676601 495.6417508402939
415.08476087642595 1350.3792300476262 455.0834374661204
433.4593011235091 1368.3842864482613 461.1512166323353
575.3715149361972 1715.2185307973357 578.0358047815283
680.5088185302545 1973.9227622380388 665.2202106960904
647.8116614267306 1829.8823110329588 616.6779773663709
655.0776849884121 1803.348543705707 607.7359870161594
-1301.985685379442 3373.6617511485833 1130.3850621965394
-931.8950042959902 3521.5794670505447 1179.9466332203338
-782.9455935244074 3610.709372786342 1209.8106567859534
-741.345966689782 3577.522705757056 1198.6910735434353
-694.3257264321819 3513.9939431581365 1177.4050141934724
-336.24904235897696 2802.85107824486 939.1282304252305
271.05812657175284 1877.4171633710498 629.0507091481585
321.1910602530444 1960.857926187541 657.0085184436322
347.7602504364104 2004.4746885688885 671.6228278480844
499.5109064462065 2590.4564092574283 867.9628976731157
446.29019410677347 2013.0084029478478 674.4821492533033
431.15943249660205 1864.1424965593353 624.6028758511513
483.4386397210173 1733.2922094152923 580.7599476377948
553.8313092609932 1749.41144768666 586.160888069875
653.8890642120207 1950.4278308354794 653.513792281698
672.6681024262093 1952.3242118085816 654.1491970384133
664.6212116665079 1785.4426861755994 598.2335784474659
-338.7515724441926 2825.358254221051 941.18793835502
289.128668343203 2003.7463508780593 667.4912443941579
298.6544915235743 1939.2317903384246 646.0000490254066
328.49085707697725 2006.5925814901018 668.4393853663087
343.64766469331187 1981.9252495190651 660.2221636076684
524.9252607639307 2723.8426957248616 907.3709103483084
507.9172154944712 2197.290032496963 731.9648305004118
522.533748232748 2170.725213451231 723.1155147603378
511.6671016373702 2044.5423229840044 681.0812649949859
562.9245804310381 2166.9302393018406 721.8513267974699
563.8354375739655 2022.7212216250105 673.8121842084965
560.8019919321574 1945.8729950998577 648.2123779604251
576.8825078571948 1938.283046801077 645.6840020346897
612.2864332366648 1994.2589155045835 664.3307744869886
616.5688396867642 1948.7192257119004 649.1605189325759
598.9303378129396 1838.6649753795828 612.499068009412
649.4386768036744 1938.283046801077 645.6840020346897
654.3730981834373 1900.3333053071744 633.0421224060125
638.0827447092913 1804.5102080350703 601.1213763436024
675.0432686612066 1860.4860767385767 619.7681487959013
656.1502031269454 1763.714235929125 587.5313557427744
290.9083429116034 2017.2491084768337 668.0801107273135
301.5767468222394 1959.3421928923221 648.9022816664353
331.90778324988196 2028.6406328541145 671.8527984114206
345.62170584999916 1994.4660597222717 660.534735359099
518.9492061169999 2836.489569942955 939.3992333426883
516.6975920999193 2682.703990849662 888.4679496072414
546.1846388566627 2700.7405711136903 894.4413717737444
545.4031766145562 2574.484509265493 852.6274166082231
515.2412933375891 2326.7188540596326 770.5714594788919
562.5248953986695 2434.9383356438016 806.4119924779102
521.6202276938797 2168.186806475806 718.0682225417336
553.2177943457413 2211.8543165887163 732.5301919974778
577.2195128587964 2223.2458409659976 736.302879681585
545.9496892003028 2028.6406328541145 671.8527984114206
540.2982171499116 1939.4070252320805 642.3000782192477
565.1768490120768 1962.1900739866423 649.8454535874621
609.0727212178019 2047.6265068162495 678.1406112182659
621.0250597814317 2023.8941643635808 670.2808452097094
624.9738676863891 1976.4294794582436 654.5613131925961
615.6187992380679 1890.9930466286364 626.2661555617922
647.5313679143832 1933.71126304344 640.4137343771941
634.7713079233243 1844.477655421406 610.8610141850212
657.8315585984527 1814.10025708199 600.8005136940687
655.0913270595 1761.8891036861191 583.5090284752441
12979.646183019568 31106.455899561828 10301.952502735345
-342.1641134694867 2857.121629195293 940.7018634957813
297.34255096658944 2063.0545806556433 679.2567977103846
309.3207233637019 2010.8133274622455 662.0564644350295
325.0739309040725 1988.017144250581 654.5508644603292
325.0587771345066 1876.8857510937162 617.9610645836648
504.53395039152764 2759.2880095785654 908.4903302710254
547.5970588603179 2844.773696622308 936.6363301761519
530.058273421176 2622.5109103085783 863.4567304228232
558.5773522730648 2419.2449433379024 796.531797315078
590.1342681090126 2454.3890591225518 808.1029306094078
560.5782027683671 2242.574523447502 738.3633975111501
545.9185401290496 2103.8977422432094 692.7043309983894
542.628516547236 2017.4622142323144 664.2455977609839
569.918090043103 2046.9072842140479 673.9403310616385
604.8239912988456 2101.048219341751 691.7661310015519
604.5547965356114 2033.60951067391 669.5620644097299
604.4216693463746 1970.9200068418327 648.9216644793039
628.8762021147863 1989.9168261848863 655.1763311248875
602.6388847963015 1852.1898859477462 609.829997944406
644.9882893953281 1927.2273223528089 634.5359311944615
613.5360351415353 1783.8013363127525 587.3131980203049
672.9778634536762 1856.9390907835098 611.393664605802
275.84955810206156 1915.0264657789203 626.8162692259173
309.9051744234349 2015.7673121176626 659.7902268129878
330.3546349894707 2021.4696241745726 661.6566772424447
335.9160034962867 1940.686870035015 635.215296158473
517.0387505389252 2829.2971655701467 926.0704880821617
544.4888284761358 2830.2475509129654 926.3815631537378
555.5916853606965 2750.415182116226 900.2512571413423
517.8514674714168 2447.242257757181 801.0183093085544
533.7403687409787 2413.0283854157215 789.8196067318135
513.1806063286108 2223.9017021948753 727.9156674881621
579.1720216425914 2410.1772293872664 788.886381517085
542.0584654469217 2169.729737654231 710.1843884083222
578.9447633242156 2232.45517028024 730.7153431323472
549.2708618533698 2043.3284870593939 668.8114038886958
596.8945628414918 2074.6912033723984 679.0768812507084
592.6952442448614 1994.8588345756596 652.9465752383129
606.169394655328 1977.7518984049298 647.3472239499424
611.1656074012911 1934.9845579781052 633.3488457290161
533.7217200221603 1641.3154870472433 537.2266486119896
633.5444360595806 1894.1179882369172 619.9726176512422
605.2057158020829 1714.4951584442542 561.1794291233523
577.2807555047647 1593.7962199063272 521.6728950331828
642.3848142501563 1729.7013239293474 566.1566302685704
314.43467013636587 2046.3945240544615 665.8629377881863
385.9250461323646 2230.8743278028655 725.8896152653741
516.8650727591003 2829.958226573456 920.8216091345922
547.5970588603179 2848.0258362189184 926.7005105369972
508.9404139223243 2520.9070089537067 820.2614535671383
566.7205574114379 2679.7117884690856 871.9339027356455
590.4988955468331 2671.1534470580773 869.1491599660851
611.1452405029868 2544.6801795398414 827.9968501492502
572.4498292564731 2292.6845713268153 746.0016463788648
607.2881638275296 2343.0836929694206 762.4006871329419
587.5920847733723 2187.131693924378 711.6564855542883
576.2652056630726 2072.0695482874867 674.217166096867
620.6828482135531 2158.6038892210163 702.3740096557541
605.966647998796 2040.6889631137892 664.0064426084795
612.0661461155368 1938.9397930051332 630.8989452370408
613.1998079071404 1834.3378424261414 596.8632002757488
632.811128897313 1841.9452570137043 599.3385271820246
655.0776849884121 1809.6137450165613 588.8183878303524
608.5007800919063 1639.397843619838 533.4329483024318
222.57231243477955 448.8374606662202 146.04428747027134
318.67194031943023 2075.146053505423 671.2152088718408
337.65443181340356 2068.485795653732 669.0609188846317
511.9346733009031 2960.9603477803194 957.7357771706412
559.4814691527789 2911.484146596329 941.7324801228027
547.9124637247505 2715.4822726751386 878.3348033563657
535.9511304121653 2535.6553106794827 820.1689737017219
585.3329223466078 2539.4611723090206 821.3999965515557
619.823685622237 2582.2771156413196 835.2490036121851
571.9749641969488 2292.080166389071 741.3835113123633
598.9083758526368 2312.0609399441437 747.8463812739903
585.5214159421948 2106.544411949109 681.371147382969
594.1602771665422 2067.5343302463475 668.7531631721732
642.6747860415935 2165.535267206943 700.4520015553918
617.2383216120327 2016.1551982475887 652.1343546994179
651.0894903995091 2063.72846861681 667.5221403223395
563.3900958890551 1734.5214376618 561.038663811722
642.1085033509903 1821.1047897337824 589.0444336454393
665.7489452273195 1840.1340978814708 595.1995478946079
674.8570136518125 1819.2018589190136 588.4289222205225
522.6273962329592 3024.5074724445544 972.4626209408015
541.1977610105312 2817.9232352646777 906.0400874991415
505.2927836452499 2505.6668767623755 805.6410507762636
535.3478083141404 2534.22690955222 814.8238895009171
568.6363518882818 2575.1629565509975 827.985958339587
557.4808125159524 2419.986778392841 778.0925346023032
546.7420425127617 2279.0906166296077 732.7905302273462
607.3524111315048 2435.2187958807585 782.990048588785
598.4154471482314 2311.4586537914315 743.19774744862
564.0884013824374 2102.01841333257 675.8569301344946
616.7280677403787 2220.0665488639283 713.812663529729
591.9728486265826 2061.082366333793 662.6948612958247
639.2863425299506 2155.33047454028 692.9982290871811
645.3860785426208 2046.8023499388705 658.103441933498
610.365024344972 1880.2021586647763 604.5368827063528
528.9603319634431 1584.1298187433863 509.34145459411195
633.0505464071676 1796.4260624812318 577.6005557807026
654.733450787157 1810.7060788761544 582.1919751430294
671.3274267603282 1810.7060788761544 582.1919751430294
359.44001159108416 3135.741528498665 1002.1921305063488
508.1901108065577 3116.690850925769 996.103478437659
571.5735734039647 3134.7889946200203 1001.8876979029143
572.2939924188792 2839.5034922401337 907.5135908382217
568.2269021356541 2468.015279568664 788.7848754987697
556.7907684403145 2322.2775961360103 742.2066871732924
579.5728051493367 2325.1351977719446 743.1199849835958
561.6922586700243 2170.824709431488 693.8019032272081
607.2636458723069 2264.173029538678 723.6362983637883
633.1247830919668 2280.3661054756394 728.8116526221747
667.4391332551908 2325.1351977719446 743.1199849835958
616.9790894116352 2081.286524838877 665.1852385043658
628.5985361202296 2055.568110115468 656.9655582116345
624.673688114974 1982.2230014598183 633.5242477471786
606.6564773616101 1869.8240037797325 597.6012005419085
569.0138186385595 1705.035642774183 544.9343601477414
628.23737783662 1831.7226486339407 585.4238964045288
617.618471613988 1753.6148705850676 560.4604229229004
674.0105660574413 1865.0613343865086 596.079037524736
658.9738726401329 1778.3807514298323 568.3756706121973
331.06325717772796 3157.5002458628037 1003.075868205559
396.0368714959034 2956.4037919307025 939.1914709247341
514.5580186742437 3157.5002458628037 1003.075868205559
499.4324126418836 2893.501583591751 919.2086736710163
519.4702394564748 2850.613714269739 905.5840391798451
561.3511015876561 2786.7584421680767 885.298472270768
579.3903214699618 2745.776700371487 872.2793770903155
602.658250508984 2619.0192199308735 832.0110129275207
595.6153913422233 2485.59029315128 789.6232611772103
552.5054967564549 2217.7793758293824 704.5449880212302
621.8295606074907 2404.579873320813 763.8878404716647
557.957005715237 2081.491257761655 661.2489273048418
619.9016255503635 2233.981459795476 709.6920721623394
655.1348477179178 2283.5407754564676 725.436094241026
612.7435350220817 2068.148365083696 657.0101521298108
626.2682357082917 2049.087089829468 650.9547590226235
655.176633727261 2020.4951769481268 641.8716693618428
646.8590785837273 1887.0662501685333 599.4839176115324
669.9533339560751 1903.268334134627 604.6310017526415
659.2084954034731 1825.1171055922937 579.803890013174
396.0368714959034 2958.0384865865835 934.0301450555841
438.34753600139015 3053.3975609446293 964.1407235551193
453.2417968229586 2958.0384865865835 934.0301450555841
505.54975876385856 3103.937870354394 980.0993301598729
487.58816570175986 2826.4429639724804 892.4775467262253
545.5219064302197 2995.2285255862216 945.7732706704028
546.865710534628 2852.189914049153 900.6074029210998
585.1566886590888 2906.5445864332387 917.770432665835
551.637504960814 2615.6994096411986 825.9331682422523
554.9722621016872 2517.479563052412 794.9192723877311
551.9981137303903 2400.187901592015 757.8832608333026
616.3979836014803 2573.7414169236586 812.6845137024569
606.8775460719805 2437.377940591653 769.6263864481215
585.845765185892 2266.685197490751 715.7284509339534
593.719773617989 2140.8112193381303 675.9824873145668
620.956276781048 2165.604578671222 683.811237724446
648.8869324796054 2191.3515287478945 691.9410939193205
631.2776386861077 2005.4013337497051 633.2254658452267
596.7670187393119 1841.3837258538663 581.435270826026
674.3015849478854 1968.2112947500673 621.4823402304079
672.9726529373494 1912.9030316224007 604.0182047006774
660.9296664097484 1830.894227674481 578.1231071910771
655.4442857486486 1770.8180108289123 559.1534427363699
442.5913753568065 3084.653211917966 968.0927446294459
525.2594511085423 3046.488619132096 956.1151047330098
553.2879188699127 2749.7589102219545 862.9889545382193
568.5305237055127 2697.282595141383 846.5196996806197
581.8800081429812 2640.989820782224 828.8526808333764
592.7893926949722 2578.972357505185 809.3890160016679
605.6641172697762 2530.3125017032003 794.1175251337119
589.5449713993457 2369.067097182898 743.5119965712695
602.1124124312723 2330.9025043970278 731.5343566748334
599.088451649373 2237.3992520716456 702.189138928565
642.5571336131496 2242.1698261698793 703.6863439156195
611.3316835588971 2065.6585845352297 648.2897593946026
637.3371626649965 2087.603225387105 655.1769023350533
636.9810505429961 2024.6316472904189 635.4137965059339
621.7997108770044 1919.6790171292755 602.4752867907347
652.6175249524932 1958.7977247347926 614.7523676845816
687.6961416256293 2008.411695356424 630.3232995499485
661.9018166726771 1882.4685391630521 590.7970878917095
671.945160849911 1862.4321279504702 584.5088269460805
671.6803854494766 1815.6805017877791 569.8362180729463
466.9763967266846 3051.0166218470554 951.6898513764781
481.1653310754021 2957.4622948942983 922.507872204108
493.3457857420978 2862.9533319522275 893.0281177340606
556.1162509995427 3056.7444377829383 953.4765031625416
536.0783227307019 2798.9927206681996 873.0771727896852
579.7812335139266 2883.0006877278183 899.2813989852829
526.7001915757827 2500.1916560129657 779.8735046167072
578.9369734197146 2629.067514570335 820.0731698031354
565.3758987671619 2461.051580451098 767.6647174119402
609.726736429126 2451.505220557959 764.6869644351676
591.2679809343522 2290.1717383639193 714.362939127713
644.5629695144427 2408.5466010388363 751.2870760396916
600.9959913539161 2098.289904511836 654.5101042945867
611.6140538515341 2067.7415528537927 644.9812947689148
636.1720124590275 2084.925000661442 650.3412501271052
644.4855398283753 2049.6034690568295 639.3235641130472
645.5962206869095 1994.2345816766265 622.0525968477668
629.0940486512343 1889.2246228521033 589.2973141032697
564.2048629869176 1648.6563535450139 514.2579390886038
679.6822506735143 1934.0925143498541 603.2927530941004
588.2962499449271 1631.4729057373647 508.8979837304134
397.0582431825466 2970.5297205918287 920.898028600688
401.6588602835974 2802.422572416857 868.7828990078516
465.78916329733084 2864.507598731477 888.0299639142969
499.9259229310554 2902.7137687712434 899.8743115490324
537.5410193820817 2808.1534979228218 870.559551153062
526.9865847667975 2621.898418978961 812.8183564337262
569.5360605355543 2704.996838815453 838.579812539276
572.8406872072339 2602.795333959078 806.8961826163585
536.427249179394 2336.307297931708 724.2818578640781
610.0033398294013 2551.2170044053937 790.9063133094655
618.9866050898487 2490.0871323417673 771.9553570938887
635.1386356264383 2461.4325048119426 763.0720963678369
591.0751421096683 2134.769750971941 661.8029240908481
594.4337057340372 2076.5053416612973 643.7402939478765
599.7545015607841 2028.7476291115897 628.934859404457
641.4151883858876 2103.249660689134 652.0313372921913
566.1715061265766 1749.8425878212959 542.4711216708876
617.3323105006049 1854.909555430653 575.0430776664103
666.2630552011843 1896.936342474396 588.0718600646194
576.2480529009994 1598.9282161642188 495.6859485136822
646.6203185199375 1749.8425878212959 542.4711216708876
349.28572207772726 3057.1870603455955 941.9173414134887
501.5814281345032 2759.973813778706 850.3461337924837
567.7091378167903 2967.3541176533527 914.2398702997444
589.7642216406564 2935.8170207507565 904.5233112917279
588.8423676723527 2798.2005979030646 862.123781074928
607.9468871204847 2763.7964921911416 851.5238985207282
613.1850321772631 2672.0522102926807 823.2575450428616
605.6641172697762 2534.435787444989 780.8580148260619
587.4080786314867 2364.326598091592 728.4474844191844
618.3790596766526 2397.775034200406 738.7529257913233
616.4636045895467 2227.6658448470093 686.3423953844458
641.4634193431698 2242.000888893644 690.7590131153624
635.0068622530587 2083.359734777555 641.8817768932183
647.1871559711119 2060.42366430294 634.8151885237517
661.3575453661974 2045.1329506531963 630.104129610774
645.2255960620512 1887.4474661402162 581.5213345706909
624.6635492369613 1779.4568009889026 548.2494809977856
643.4436903176016 1742.1856864676527 536.7662748974022
387.9293908977934 2538.6633270547995 777.3117211692203
487.166172409031 2682.090633668065 821.2276376194587
505.72736721457073 2644.799533948616 809.8094993423966
552.4419344248473 2626.6320751109356 804.2468165920332
618.0372918859698 2811.175209620004 860.7519624246733
551.3401898761228 2403.84165883833 736.0307597059962
563.4137923471108 2358.9011027661736 722.2704392182548
602.6037605362624 2426.7900278964526 743.0573063380343
600.6336263180559 2330.2156414435203 713.4872559282071
617.4826386509743 2311.092000561752 707.6318004015086
593.4553104671569 2145.672506934452 656.9821100955669
634.9011337232909 2220.25470637335 679.818386649691
594.107095708046 2011.807020762071 615.9939214086777
678.4087074254007 2226.947980681969 681.8677960840354
667.8995463987587 2127.5050480967716 651.4194273452034
622.1087564589511 1924.7944547500233 589.3515987621997
585.861713827299 1762.243507254989 539.5802267852629
561.9179874565712 1644.6331158321113 503.5691752960673
639.0891843697161 1821.526793988472 557.7321389180281
620.6542648629044 1723.9962254914515 527.869315731866
664.6212116665079 1800.4907890185264 551.2911378386598
564.5397000853926 1492.60017082205 457.0183038588146
227.28782752873676 460.8797452506265 141.11647819343284
415.62246074335434 2904.515613720088 883.7901615520626
478.65596119760767 2636.641973456048 802.2811874958777
529.6743123393786 2639.512048173163 803.154497932194
579.7925362019785 2758.1418031472376 839.251329299933
520.4967124862794 2368.7683331920084 720.7722134396927
583.5112442022165 2444.3469674093626 743.7693882626878
616.3748472624654 2483.571321876597 755.7046308923434
626.0194545949372 2429.9965938237888 739.4028360811064
585.5482862176389 2192.7370838756397 667.2091733456283
649.1194192330287 2271.185792810108 691.0796586049396
600.319242146058 2033.9262828619587 618.8859958694616
683.9431709037531 2246.3118119284472 683.5109681568653
654.6916452564911 2086.5443193423953 634.8966872019264
629.216804843728 1947.8240413485173 592.6866827799735
615.7428864261955 1853.1115756837319 563.8674383815367
693.1014461458443 1976.5247885196645 601.4197871431362
600.3444469888549 1668.4701022160189 507.68446697852346
627.9135079950704 1701.9543072490237 517.8730887355466
423.28875119184835 2959.656792368162 894.9277464628102
441.9911139230979 2895.5245138789423 875.5357157341529
436.27934634951725 2688.7697056151897 813.0181241313176
474.7568981832925 2762.473965968472 835.3044878045505
488.5406815608579 2557.6335540775317 773.3657627906302
554.247821574406 2763.431164154878 835.5939210990081
563.5028395553047 2682.069318310346 810.9920910701145
568.4462100870766 2481.057699165031 750.2110992340246
585.5086183933897 2360.4507276778418 713.7425041323706
581.6558711984457 2258.987719918778 683.0625749198681
601.3877250245732 2253.2445308003403 681.3259751531226
632.5958567903027 2289.6180618837784 692.3244403425103
599.6288485164414 2099.1356227889323 634.7272147454537
616.1319785337246 2088.6064427384636 631.5434485064204
539.7684156694269 1625.3225205178326 491.4577339889559
689.0029276429701 2018.7309751308062 610.4148180110177
615.9410721799469 1757.4158702418968 531.3995286241008
650.9468745733512 1810.0617704942413 547.3183598192671
684.7398569479689 1856.964481628148 561.5005912476881
393.7924372112401 3184.358766458842 956.8094096928194
426.49451230892646 2629.8493752469117 790.1950794034533
470.3153055807461 2738.0696882122797 822.7122112215851
475.7034389405832 2623.1454620543664 788.1807438041
525.2909349267758 2751.4775145973695 826.7408824202918
544.598747150523 2593.456703630239 779.2601147212496
601.6403841420564 2740.9427938662275 823.5754979070223
581.6046871724255 2539.8253980898794 763.1454299264232
612.7103795759897 2380.8468852380997 715.376899998902
638.9425234861757 2395.212413507839 719.6933334260876
596.6288682771417 2160.5754517687665 649.191587448722
592.5197057615725 2075.3399840349807 623.5807491140871
632.509455506665 2145.252221614378 644.5873917930572
645.4932141067789 2122.267376382795 637.6810983095602
597.6575266876084 1906.7844523367082 572.9345969017754
654.2494969814206 2027.454889802517 609.1926376901349
629.0940486512343 1895.2920297209168 569.481450160027
640.6198485356989 1782.2832073323025 535.5255071994998
686.1516917045626 1861.7724637581923 559.4097721632604
-53.91814819964651 454.1880634784068 135.60679552933453
370.8341974006025 2431.918365207165 726.0971456823861
470.644312440194 2741.417826185067 818.5043080367639
478.3086056379577 2638.890140969477 787.8926474425892
522.7312157868611 2739.5014208539346 817.9321274649101
545.8006777748653 2724.1701782048744 813.3546828900803
552.8700944422111 2520.073010439261 752.4174519876578
524.8039277540024 2292.9789787000577 684.6140542229905
600.6397543059998 2520.073010439261 752.4174519876578
536.8349497921549 2166.4962268453114 646.8501364806442
576.9730485065937 2243.1524400906123 669.7373593547935
572.519070424838 2147.3321735339864 641.1283307621069
620.9594781536917 2249.8598587495762 671.7399913562816
654.0411334479379 2292.0207760344915 684.3279639370637
642.9571563342304 2181.8274694943716 651.4275810554741
671.801880827156 2144.457565537288 640.2700599043263
660.7394542023038 2048.637298980662 611.6610313116397
665.968687177532 2007.4345843613125 599.3591490167845
627.5839848279495 1840.7073205527836 549.5794392655098
635.3989056148254 1814.8358485824945 541.8550015454844
680.8952500825429 1895.3248724900602 565.8865855633411
693.5638241766798 1882.8682378376989 562.1674118462919
236.1367746293972 463.77009013406933 138.4676983886032
372.08888283940615 2605.748034103091 773.0466886080532
417.48625239854124 2576.9870182741383 764.5141644512314
432.97870510364146 2390.0404153859477 709.0527574318899
526.936468659578 2762.974920634698 819.6911539986789
504.90882256345265 2521.3823876714973 748.0179510813759
491.5064025243272 2343.064089531992 695.1163013090809
598.2769158868946 2728.4617016399548 809.4521250104928
516.908841502793 2259.65714362803 670.3719812542978
584.653144875802 2454.273350737275 728.1087280487918
630.6207990481927 2546.3086013899224 755.4128053506215
619.5264372067078 2324.8487795069886 689.7123693430938
627.7919909684219 2201.176411442493 653.0225154687602
625.1678278981054 2122.56296817669 629.7002827734473
656.2708535119914 2159.952288754328 640.7925641773156
668.4999055415891 2135.0260750359025 633.39770990807
668.7746393329212 2074.6279417951027 615.4794091787444
670.1011897709965 2020.9407122477246 599.552030752677
594.2609413857575 1743.8762597621496 517.3553813752939
684.6818262963487 1906.8553494595467 565.706351597284
363.8636633666424 2733.7070875881245 805.819805707488
409.3251507320914 2867.994453294208 845.4039365141716
385.1807685819875 2378.804763936333 701.2046028612527
363.2235728304608 2117.9035962788 624.298291579696
455.38313870106214 2515.0105205810746 741.3542212508889
518.1602887512992 2718.359960078858 801.295905043867
419.6694624044515 2096.801295953558 618.0779281672171
503.97505921684285 2403.7438461388915 708.5559414396367
520.6370766769752 2277.1300441874414 671.2337609647636
587.1653263576902 2466.0915516452874 726.9342878855971
618.2743075005624 2497.7450021331497 736.2648330043153
609.5063429973542 2372.0903956510288 699.2253963209185
633.066602638442 2376.8863729976747 700.6391152783001
579.9676897747215 2103.5156642388624 620.0571347075513
617.6751339711086 2166.822565214587 638.7182249449878
662.9704671963126 2183.1288881931832 643.5248694000851
621.9720719722374 1987.4530124500332 585.8451359389176
661.5182997691858 1996.0857716739956 588.3898300622044
641.6319345143638 1883.859901762483 555.3088064594759
589.4381611220952 1685.3064396113457 496.78084162387944
638.5544433281684 1779.3075956056039 524.4897331885579
687.5635264611564 1868.5127742532165 550.7849057958549
418.9080137927089 2936.6437168015655 860.0719043021268
392.60499937565754 2578.680283348303 755.2330741371944
388.13175027676886 2398.2590353879455 702.3920551800702
376.7128540678239 2197.68435015542 643.6485819777354
489.2720298865478 2568.1237209676437 752.1413123897031
475.7277803468576 2378.105598115778 696.4896009348596
499.0546023596233 2278.2980992440903 667.2583989585781
549.585726264743 2404.9768478120013 704.3595399284737
573.2341381399465 2408.8155977686047 705.4838169275615
593.1908473163248 2152.5790381653305 630.4383272384543
618.3909408748198 2101.715601240336 615.5416570005417
623.6466477448618 2054.690914271945 601.7692637617168
644.1853602569602 2059.4893517176993 603.1746100105765
638.4881723021327 1982.7143525856322 580.6890700288216
611.928268647613 1847.398416615364 541.0583058109785
645.1278223322646 1845.4790416370624 540.4961673114346
690.3871959743439 1877.14872877904 549.7714525539085
417.41705688751443 2192.0831449201974 637.8561638463467
480.91125495112124 2405.2423469229498 699.8815989641255
531.325660993974 2536.7865391498735 738.158556671944
490.85614848766653 2242.0123273712925 652.3846441442048
547.8312626533632 2398.5211108237636 697.9258420009522
559.759710191637 2353.3928113006586 684.7943309625036
597.6176774112579 2416.7644659501257 703.2343251867081
591.5144452865549 2304.4238054351613 670.5452445165274
575.3292934389715 2162.31767076666 629.1949544380083
583.9346370372025 2120.0699010003486 616.9016249552052
657.0488476903824 2307.3043351919555 671.383426072173
619.2773344724783 2041.3354209813137 593.9913291008905
644.4855398283753 2061.4991292788714 599.8585999904102
661.0484997842507 2053.8177165940874 597.6234491753551
673.915807549579 2035.5743614677258 592.3149659895993
645.5522925663864 1897.3089331416163 552.0822513186075
654.1857792760874 1872.3443419160685 544.8180111696785
704.3031757678882 1964.521294133475 571.6398209503396
693.5638241766798 1886.7469907000384 549.0089189479069
376.9490828018079 2331.5285116776377 674.0206222618564
407.1781803278557 2139.395960241491 618.4771016799152
506.8286279724391 2536.149678957134 733.1744716816238
495.1263351124769 2365.1517081789634 683.7407383636961
522.3886633798079 2387.24695159412 690.1282432306193
501.55728490321917 2197.035725672335 635.1401578544976
596.7572920158088 2510.211784513254 725.6760964030617
580.9974003279094 2350.7417668212524 679.5749743200505
608.0275568841379 2369.955021964867 685.1293263782446
615.1833652757741 2313.275919291204 668.743987806572
558.01724825566 2026.9984176513456 585.9841421394797
603.7302770288658 2121.1433678550575 613.2004672246309
634.2036772624864 2157.6485526279253 623.7537361351997
627.1420983627685 2068.306916210117 597.925999064597
643.5850011141298 2059.6609513954904 595.4265406384096
648.6866765063778 2016.4311273223575 582.9292485074728
600.4844153118654 1814.6919483144036 524.6085518964346
686.7160521126236 2019.3131155938997 583.7624013162019
666.5985350879926 1908.8368985181155 551.8248769815858
702.2377705603577 1959.7520246486943 566.5439099358002
-1391.185377671833 3569.696252980894 1025.214446569187
386.17603771859433 2540.3088843910887 729.5750625423698
384.44451526484914 2246.198207651144 645.1066671061362
397.3747602395233 2199.102053532656 631.5806822160205
440.4545291467465 2315.4007198252484 664.9815836793676
467.85657817001294 2342.312807892956 672.710717902291
494.4298335087759 2260.6153976874157 649.2472747255595
478.74925795528094 2098.181723278754 602.5964288800579
512.028262035761 2154.8893374214226 618.8828188497893
588.5952412802973 2382.680939994517 684.3044192366759
585.3528364814866 2282.7217557430326 655.596206408675
621.0592861235078 2336.5459318784474 671.0544748545217
576.5296688139047 2095.2982852714995 601.7683073561733
584.5902773042187 2054.9301531699384 590.1746060217883
626.2682357082917 2066.4639051989557 593.4870921173269
661.0484997842507 2055.8912991723564 590.4506465297499
679.6377342174527 2054.9301531699384 590.1746060217883
635.75139743633 1870.3901207056595 537.1748284931712
687.0628081832958 1968.4270129523077 565.330960305249
630.2928224980466 1759.8583304275758 505.4301700775933
641.6788968718595 1747.3634323961403 501.84164347409313
256.426848147112 496.9124832501675 142.71294261612
443.16001604256394 2916.6126280689477 832.1416813192001
331.2865239457175 2051.148940214661 585.2153663876867
331.14540403429237 1935.753781834089 552.2918577301516
444.84261910088594 2339.63683616609 667.5241380315244
411.60627968670815 2061.7268297328797 588.233354681294
444.24617151237265 2124.232540522356 606.0669218707923
527.2236489966028 2411.758810153947 688.101330942484
550.3961246682355 2317.5194308098135 661.2137988721636
579.5728051493367 2347.3298467247946 669.7190386086935
585.845765185892 2285.7857622551564 652.1598339913414
570.2197970496378 2146.3499458786323 612.3772610301531
641.8520670694251 2333.8670782470613 665.8779625986477
585.1371344392087 2057.8803244535275 587.1359043927096
645.2161186753257 2197.316140830051 626.9184773538979
652.3952234897397 2029.9931611782224 579.1793898004719
621.4648130940693 1879.9794552834794 536.3788285456762
620.0699652282395 1825.166755052708 520.740161933347
705.1787220709414 2021.3385242996796 576.7101266511568
676.0759712649718 1888.6340921620222 538.8480916949914
376.01239332105246 2082.954527771361 590.3604282442947
400.7788824780691 2108.9313278867544 597.7228908598124
472.4641111515806 2367.7372253327108 671.0748332144153
492.1097246223522 2354.267773421025 667.257260006369
472.77750661617216 2163.7712392414737 613.2658674925722
487.30226806075774 2137.7944391260803 605.9034048770544
564.5556930206964 2378.320366120464 674.0743550207374
552.7429292862171 2239.777432171699 634.807887737976
589.7891948211358 2302.3141731902383 652.5323347753335
594.4899048989728 2238.8153284637215 634.5352039374013
644.2322354269136 2343.6846326332725 664.257738200047
640.9805642857721 2183.9754171090017 618.9922273046416
632.6765618411208 2089.6892537272033 592.2692148483178
679.6377342174527 2056.9777276559676 582.9979656287769
689.6563206516405 2031.000927540574 575.6355030132592
622.3151900293036 1784.7023782983254 505.8284500661278
665.7489452273195 1860.7085712285505 527.3704703115316
681.2102700564844 1856.8601563966404 526.2797351092327
374.97032664210263 2078.2062590602236 585.0980642618047
419.6694624044515 2104.195869525544 592.4151776175568
450.3656256621412 1898.2041421337476 534.4202791682625
503.8318281552202 2042.5908669410815 575.0709089224407
550.3548984686987 2149.4370432985083 605.1523749405326
643.9677722760815 2343.877832705718 659.8952230094925
601.5428484889061 2117.671963840895 596.2092363946133
613.5906458999924 2091.6823533755746 588.8921230388613
625.1030855023229 2065.6927429102548 581.5750096831092
629.7767408290318 2019.488990971908 568.5668081617722
667.8759960668233 2022.3767254680547 569.3798207568558
640.325148497023 1886.653204149161 531.1682287879282
685.0499288624463 1965.5846137105034 553.3905730535456
677.4529080699922 1894.3538294722186 533.3362623748178
684.3868982588203 1866.4390626761342 525.4771406223433
376.2193437786521 2202.494642417954 615.9434634121944
365.9390820912044 2029.145698108714 567.4651847002596
445.93964158942083 2348.878195390201 656.8806765467172
445.01089380307343 2232.3491828267674 624.292500301472
442.2350978522895 2117.7462696445477 592.2429715974707
508.3041400613181 2328.6541518874565 651.224877363658
460.7660059386373 2023.3673999650728 565.8492420765284
518.42290580784 2186.1227976776368 611.3649593116228
561.7653654171777 2278.575567975898 637.2200412913213
531.1306789968858 2075.3720832578447 580.3927256901088
571.7526459664379 2155.3052075782166 602.7465986517233
634.080848020806 2233.3122325173745 624.5618240720939
639.2863425299506 2180.3444995339955 609.7490166878916
618.4034718180017 2044.5544931584243 571.7743650302093
632.7785365431836 2030.108747799321 567.7345084708815
647.4504941785905 2017.5891018214313 564.2332994527973
627.186739761943 1900.097039567391 531.3757994369303
640.6518450013582 1888.5404432801083 528.143914189468
656.1986585969369 1883.725194827074 526.7972953363586
387.0661013713833 2039.7682034495338 566.5992200808802
413.52608509569467 2075.418379891495 576.501993412478
449.65366236193523 2060.9656056582676 572.4873555753438
430.28220069091213 1890.422869706181 525.1146290971596
479.61371011948387 1946.3069300746613 540.6378954007454
493.9145618142733 1930.8906375592185 536.3556150411356
578.139516453105 2180.4418726529498 605.6750283623202
563.5709744231334 2053.2574594005464 570.3462153955388
638.7291336682202 2250.778707254658 625.2129325030403
590.7186521964031 2015.6802463941542 559.9081570189898
633.2591369441053 2094.6887455357987 581.8548438619904
638.7821279714871 2050.3669045539004 569.5432878281119
638.1791267201859 1989.6652527743445 552.6818089121482
656.4321427310757 1989.6652527743445 552.6818089121482
630.1975568626312 1858.62676639308 516.2824258554643
660.5598971254441 1897.167497681687 526.9881267544889
673.6663318561863 1885.605278295105 523.7764164847815
219.74300337840523 448.99951951227337 124.72141547363731
8.355365974590132 493.55977665519765 136.1717550304445
368.3705710087539 2044.6099341517074 564.1021336319781
396.75646668677456 2091.845147151912 577.1341961251261
416.5977737500731 2091.845147151912 577.1341961251261
448.87164093056396 2151.612151356252 593.623744585844
447.1310611705639 2050.3938377843856 565.6978963862412
483.2523650614051 2039.790014457809 562.772331336759
531.1365690778641 2156.4320710501506 594.9535468810632
549.2708618533698 2072.565468376318 571.8149869442494
598.2617056789666 2109.196858049946 581.9214843879151
620.0851626306412 2116.9087295601835 584.0491680602659
578.4970772635663 1914.4721024164503 528.1974716610601
649.8887721138484 2087.0252274580134 575.8043938299069
648.9957220883247 2024.366271437334 558.5169639920575
678.3661949579252 2057.1417253558434 567.559619599548
685.3854087492546 1969.4191869268923 543.3572178265588
634.7678671143626 1777.5863831097354 490.4310864768353
381.5700822754514 2118.8893095636045 580.6178552344664
378.10708438168194 1994.4756905678353 546.5260467113685
405.65488291885 2037.875790217522 558.4185380566352
443.24063468233106 2125.640436175778 582.467798332619
501.57720355099457 2301.1697280922895 630.5663188845866
469.4041113397127 1906.7110446095794 522.4767864353847
549.6155054120906 2150.716049306708 589.3390155543287
567.8023848364464 2070.6669766195078 567.4039759619478
582.949705899249 2056.2002767362787 563.4398121801922
626.0149387760162 2138.178242741243 585.9034069434739
663.8299100217721 2071.63142327839 567.6682535473982
594.4446038291097 1803.5152521092127 494.1990847921949
647.1857750880625 1910.568831245107 523.5338967771862
629.0247877654685 1808.3374854036224 495.5204727194468
682.6164210888184 1912.497724562871 524.062451948087
646.2673598307891 1765.9018324128174 483.8922589596304
484.73468349148146 2693.053877144703 732.8995939389522
394.3795846282824 2081.303193479443 566.4150570140881
431.9562170219652 2171.039492502896 590.8362903484924
458.7259018649715 2200.9515921773805 598.9767014599606
447.1310611705639 2052.356000246071 558.5372398094415
468.00316833557923 2059.110345333858 560.3753971571924
482.7956047919709 2039.81221651161 555.1235190207614
489.58587636949295 1989.637081573765 541.4686358660407
581.4606891061719 2196.127059971818 597.6637319258529
605.0916891037677 2207.705937265167 600.8148588077114
591.4259914915926 2087.092632126117 567.9906204550174
650.2987839427899 2222.179533881853 604.7537674100347
628.5985361202296 2082.2680999205554 566.6776509209096
643.885180685545 2069.7243161860943 563.2639301322295
670.0108216607084 2091.9171643316795 569.3035899891252
690.4458179234366 2095.776790096129 570.3539656164114
676.2617639738967 1997.3563331026644 543.5693871206131
667.6049747484174 1920.1638178136725 522.5618745748889
615.8943685108416 1643.2356692144142 447.1974233171034
429.65245053118133 2160.483029749795 583.9153005044012
455.3070766428301 2185.5824751356286 590.6989456398411
482.02704431786697 2213.5780103736734 598.2653190601394
466.2487047241994 2052.3623419338987 554.6934445363526
490.3321492376355 2072.6349708993794 560.1725425303616
468.28226918518925 1834.1902397339638 495.72791374368285
547.2270632976363 2067.8081544790266 558.8679953889309
569.3891637414388 2078.427150603802 561.7379991000786
581.0357059267843 2051.396978649828 554.4325351080664
657.6404115513494 2248.3310886002114 607.6580584784407
621.8989224359084 2061.050611490533 557.0416293909278
651.0894903995091 2093.8729631489305 565.912549952657
668.4655937509743 2088.0807834445072 564.34709338294
675.1873468091064 2050.4316153657574 554.1716256797803
658.9468492441302 1947.1377439702133 526.2543168531623
669.9533339560751 1927.830478288803 521.0361282874393
682.9606552900734 1915.2807555958866 517.6443057197193
262.37872856832155 510.67717727329835 138.02108756337276
395.4766071168172 2089.062574106706 560.7018472117446
386.6488093698835 1945.1558133383755 522.0774481204131
447.8268368047108 1972.1986945565852 529.3357244597238
503.1214367817937 2127.6952615612918 571.0708134107598
472.49073422662025 1921.9762008656244 515.8560684010041
553.86940860377 2093.891660038529 561.9979679866215
545.8519433173849 1993.4466726566072 535.0386558691821
576.38742027937 2035.9426288566513 546.4445186880988
608.2256103398912 2080.3702194294247 558.3688298169662
664.718192505266 2203.994819284098 591.5495216538147
641.1835645428084 2062.985510074861 553.7027950274094
648.377630924431 2026.2844569930048 543.852277138345
672.6442682900514 2043.6691663475683 548.5183119279018
689.0029276429701 2036.9084460430158 546.7037428430741
643.4504228982233 1852.4373634473704 497.1919292427768
649.9141719695859 1823.4628478564314 489.4152045935154
662.5034595316173 1812.8388588064204 486.56373888878625
218.22497908387498 454.8998947777432 122.09457699340348
408.918552114127 2058.1511522838077 548.5561360087355
414.8844960751584 1993.411186460796 531.3010838432025
431.1545869585456 1981.8159687014506 528.210626738928
454.4060753473853 2002.107599780305 533.6189266714084
473.2036391338523 2002.107599780305 533.6189266714084
485.5495233635369 1976.018359821778 526.6653981867906
534.581179927724 2095.8356100016804 558.6001215976279
563.5774517435041 2131.5875314263285 568.1290310024744
580.7610792272177 2121.9248499602077 565.5536500822457
537.5605636950861 1899.6831762394208 506.31988891698313
595.8013174638675 2038.8257893515654 543.405374168278
648.9886647246856 2152.845430651795 573.7948690269778
654.5585425633674 2046.5559345244624 545.4656789044609
686.631200144854 2087.139196682171 556.282278769422
661.2739006110036 1856.2011096418755 494.7306747759535
664.9741703556563 1820.4491882172272 485.2017653711069
407.7666688687351 2053.305131144965 543.428043455395
407.2424161668423 1957.6002309644791 518.098770243491
462.687101850687 2127.742275729787 563.1285892868759
470.8541717040715 2075.5396029040676 549.3126220803829
480.968563714234 2035.9042402030582 538.8227210532307
439.48761258968545 1789.3916185260498 473.58065368923553
561.7891280072372 2125.808843402908 562.6168867977466
572.5627215514236 2092.940493845974 553.9179444825472
580.2448025725197 1925.6985975709838 509.65567917285637
629.4765612576167 2027.203794732105 536.5200598521485
660.7394542023038 2066.839157433114 547.0099608793007
629.4119334661162 1914.0980036097128 506.58546423808014
689.6563206516405 2040.7378210202544 540.1019772760542
683.3725294284051 1969.20082492575 521.1689851782673
701.5493021578476 1970.1675410891894 521.424836422832
672.3863028277735 1841.5942913517692 487.39662089572863
366.8748136573224 1848.2451210047539 485.706673499678
393.1649005462601 1890.8002153659309 496.88987268020435
460.37471742526327 2118.083105704035 556.6183228489245
429.4049688852222 1893.7016990723746 497.65236353342203
482.56722465725375 2043.6116905719753 537.0477242830035
499.58324191493614 1960.435824320584 515.1896531574292
500.2196965157665 1893.7016990723746 497.65236353342203
491.1080710951472 1796.018414288764 471.98183814175934
531.545135210197 1880.1614417756366 494.09407288507276
559.0931794210699 1914.979246252963 503.2439631236852
597.9577062590236 1926.5851810787387 506.29392653655606
650.8499955800055 2036.8415619236062 535.2685789588288
637.9948234679268 1941.0925996109581 510.10638080264454
594.914334394428 1761.2006098114373 462.83194790314684
679.3467707867061 1958.5015018496215 514.6813259219508
657.1430901959426 1846.3107985337913 485.19834626419953
632.8549296431485 1734.120095217961 455.7153666064483
410.83835752311353 2070.6711933585248 540.2969637108683
422.11526602279844 1942.9475496560362 506.9702351081419
478.6847623670629 2028.096645457695 529.1880541766262
471.30357157780963 1920.6926723442389 501.1633051243335
485.78123819158316 1907.1462252848842 497.62865209071094
556.4241567984369 2107.440121091059 549.8910219449865
532.8932489266136 1949.7207731857136 508.7375616249531
589.511991519128 2086.1528471406446 544.3365671778655
549.774959764052 1883.9237446117045 491.56924689021525
622.1902099874006 2066.8007799129946 539.2870628441191
619.2704558295009 1996.165734532073 520.8563720259446
610.6740699269188 1911.9842420917967 498.89102817414755
626.2330853172974 1906.1786219235016 497.37617687402366
672.6681024262093 1992.295321086543 519.8464711591953
687.3982880701041 1982.6192874727183 517.3217189923221
667.7978398688438 1830.7055597356675 477.6831099724126
368.8309092592537 1775.39001798593 459.94160937658137
480.05504317536554 2034.8254186512675 527.1522698525486
501.2200703278369 2043.5378015094318 529.4093442715176
474.69034234246027 1864.4499316471652 483.01392565937607
499.96422169629983 1894.4592503808424 490.78829310249165
488.46343958682655 1787.9745710032785 463.20182798175887
544.669706449955 1928.3407392737035 499.5658047318157
551.7515518125105 1891.5551227614542 490.0359349628353
607.9171199642814 2020.304780554327 523.3904791542668
600.0589632589298 1935.117037052276 501.32130705768054
598.6212922309927 1875.0983995849217 485.7725721714493
627.5046245768249 1910.9159735573749 495.05165589387764
653.0663121660964 1935.117037052276 501.32130705768054
676.0759712649718 1901.2355481594145 492.5437954283565
685.7987330154141 1880.9066548236979 487.27728845076206
671.5888680708355 1797.6549964012388 465.70968844728003
369.635338723287 1780.0639781280233 457.8386547366176
458.6929832976824 2113.2206747961627 543.527717429434
494.2146115278264 2095.7880569472486 539.0439874048099
443.38936961271344 1742.2933061220426 448.12390634993204
531.1321496712352 2013.4673615495979 517.8708178440849
497.6399928408223 1762.6313602791092 453.3549247119935
554.0105141536056 1900.155345531655 488.72657268402816
536.5516698486854 1783.93789320556 458.83503918653406
517.8097606911725 1670.625877187617 429.69079402647736
587.7690227165904 1790.7172445912488 460.5787119738879
675.6083709652263 2002.8140950863724 515.1307606068146
703.8368025237083 2031.8684581678963 522.6036439811882
669.2096746254375 1836.2357467523027 472.2862292604064
206.53956111532509 424.1937009902471 109.10409726585338
244.5230873046929 477.4600333063741 122.80438345220483
454.2480879523321 1927.1660650988538 492.0893796165497
483.65006312543994 1973.6738434421143 503.96483975812555
504.51252895899074 1983.3629639302935 506.4388939542872
499.96422169629983 1896.16087953668 484.17240618883244
517.2899230275218 1895.1919674878623 483.9250007692163
556.1537062847432 1970.7671072956605 503.22262349927706
547.0380217024056 1819.616827680064 464.62737803915553
650.8499955800055 2040.528774810551 521.0358137116408
672.9621531049333 2051.1868073475484 523.7572733274186
696.1902507383448 2064.7515760309993 527.220949202045
686.3918484096794 1982.3940518814754 506.191488534671
660.9296664097484 1860.311133730417 475.0184056630344
719.3298084845156 1974.6427554909321 504.2122451777417
606.1297484581153 1623.896593818843 414.65148327669044
