# .PCD v.7 - Point Cloud Data file format
VERSION .7
FIELDS x y z
SIZE 4 4 4
TYPE F F F
WIDTH 868
HEIGHT 1
VIEWPOINT 0 0 0 1 0 0 0
POINTS 868
DATA ascii
290.3461721613408 594.02263741815 502.4152726926054
296.31671269447946 594.7861626590474 503.06105067807147
291.32500943080225 582.5697588046895 492.7286029106143
296.008447992819 581.0427083228948 491.43704693968215
319.21770989192123 613.1107684405841 518.5597223292573
300.4127129320142 574.9345063957159 486.27082305595354
286.6750780191996 539.0488200735398 455.9192577390481
299.49236839956933 561.1910520595633 474.6468193175642
284.7918137743448 524.5418404964898 443.6494760151927
315.5557469086799 569.5898297094343 481.75037715769105
289.8667335814544 521.4877395329004 441.0663640733284
290.3410725934849 513.8524871239267 434.60858421866766
324.6092023087313 572.6439306730238 484.3334890995553
293.34126883436755 509.27133567854247 430.7339163058712
289.8584087584569 501.63608326956887 424.2761364512105
317.72610173069233 541.3393957962319 457.8565916954463
296.68259845745087 503.92665899226097 426.2134704076087
288.4666753943962 482.54795224713473 408.13168681455863
302.15752738635075 503.92665899226097 426.2134704076087
275.91350775867915 452.0069426112401 382.30056739591566
294.6285550551433 475.67622507905844 402.319684945364
299.72537993384185 475.67622507905844 402.319684945364
283.2037917728636 448.1893164067533 379.07167746858534
287.1836112568626 448.1893164067533 379.07167746858534
311.525925605835 484.8385279698268 410.06902077095685
317.6603693897587 486.36557845162156 411.360576741889
-1199.1235671489967 1711.2893243198037 1442.266566370125
-1175.345384373616 1681.4679285876891 1417.1332347845866
-997.393793045231 1968.2121183195597 1658.7998846455325
-792.5386753902143 1753.3451388138114 1477.7110083497303
-525.3112423410664 1345.0214126356277 1133.5776989477433
-27.86120349325434 584.958147053016 492.9999657163296
-28.871909650060108 633.1311709279703 533.5999628929685
-21.987576090319447 586.4874493982527 494.28885451558796
-21.58448175730567 608.662333404184 512.9777421048344
237.34314550417056 1788.5190927542542 1507.355450732673
302.1736530401353 2209.8418888669494 1862.444314928356
305.9956622602475 2205.2539818312393 1858.577648530581
261.4447962173817 682.8334971481612 575.4888488688657
265.76163786787447 673.6576830767414 567.7555160733154
250.39185268013486 631.6018685827337 532.3110740937101
289.0947416324407 711.8902417076574 599.9777360547749
280.0746535102838 670.599078386268 565.1777384747987
236.12730513015964 562.7832630470847 474.3110781270831
283.532303024836 660.6586131422299 556.7999612796193
271.94267211089544 630.8372174101153 531.6666296940809
291.1170052904513 660.6586131422299 556.7999612796193
281.5498474173961 636.1897756184436 536.1777404914852
287.2687010487338 635.4251244458253 535.5332960918561
275.3764282304847 594.1339611244359 500.7332985118798
275.7915720161466 592.6046587791992 499.44440971262145
286.4847579598628 603.3097751958558 508.4666313074301
290.5412783896305 609.4269845768023 513.6221865044636
288.48252134551944 593.3693099518175 500.08885411225066
282.13586909251114 578.0762864994512 487.1999661196669
297.07747447289915 597.1925658149091 503.3110761103966
286.7432268447346 574.2530306363595 483.9777441215209
292.41091387445925 572.7237282911229 482.68885532226255
301.3287971333453 579.6055888446878 488.48885491892526
300.4127129320142 575.7823329815961 485.26663292077933
297.2325171530511 559.7246583566114 471.73330052856636
280.3411557263996 526.0800067614052 443.377746944882
306.34810826672606 565.0772165649397 476.24441132597065
283.6816156548709 521.4920997256953 439.51108054710687
318.9397227468427 576.5469841542144 485.9110773204085
289.8667335814544 522.2567508983136 440.1555249467361
289.9096594098393 513.8455879995121 433.066636550815
308.733989088045 536.7851231780618 452.3999685396907
317.2118659015685 549.7841931125732 463.3555233333869
299.80079274729644 511.5516344816572 431.13330335192745
285.2716331036355 477.906982886451 402.7777497682431
276.95938402636773 455.7320988805197 384.08886217899664
285.2349100478237 467.96651764241284 394.3999725730637
286.5889315624668 463.3786106067029 390.53330617528854
291.68552734651337 470.2604711602678 396.33330577195125
282.88687544317656 449.6148894995731 378.93330698196314
292.8529839968113 464.1432617793212 391.1777505749177
287.97750918208686 448.8502383269548 378.28886258233393
324.7607771696166 499.317215719764 420.8221929578604
336.1115996368876 515.3748903447488 434.3555253500734
330.0199940417235 499.317215719764 420.8221929578604
-1210.375396867553 1729.885216903911 1452.7828937378456
-762.5536095614937 1703.8488745512182 1430.9171928139472
-38.329397135696425 407.392180342134 342.13390857394154
-34.24558985601912 398.2028830411836 334.4166023655067
-78.57617093561035 958.7500183991574 805.1722810800278
-24.401315477752167 513.0690993030635 430.8829299709414
-27.372523037798533 601.1331984371714 504.8404478017746
-21.58448175730567 609.5567209630426 511.91464515950645
146.88956137751094 1747.4980367307326 1467.5743973040123
152.9319831584984 1696.9569015755055 1425.129213157621
148.1201612752474 1539.9730726842697 1293.2918987635271
199.70697967362096 1843.9856583907117 1548.6061124925773
238.99557045310206 1776.5974781837422 1492.0125336307224
305.9956622602475 2208.4944513284104 1854.7259254271567
238.61863571434796 1650.2446402956743 1385.8995732647443
377.54477211810087 2185.521208076035 1835.4326599060696
257.3151839969318 653.2058831425569 548.5718496495716
289.01660367936927 693.0261714466753 582.0135098861223
243.82710855831704 581.9888290601914 488.76272653420216
279.26619198395304 651.6743335923985 547.2856319481658
287.747595506997 653.9716579176361 549.2149585002745
261.24577188248776 591.1781263611418 496.4800327426369
279.66351281398994 619.5117930390721 520.2750602186442
265.91361794432373 586.5834777106666 492.62137963841957
287.0719522093856 620.2775678141513 520.9181690693471
280.77361331708346 604.1962975374881 507.4128832045862
284.66926519712604 600.3674236620922 504.1973389510717
289.083103843133 607.259396637805 509.9853186073978
293.68710291618606 604.9620723125673 508.0559920552891
296.3173016659442 608.0251714128842 510.6284274581007
291.75214202396114 587.3492524857458 493.26448848912247
294.8415290125582 580.457279510033 487.47650883279636
285.7740840535436 560.5471353579738 470.755678714521
299.3411401601702 576.628405634637 484.2609645792819
280.4649896297556 538.3396668806771 452.105522044137
306.16573488169473 577.3941804097162 484.9040734299848
298.26995056936704 560.5471353579738 470.755678714521
313.39535838923535 578.9257299598746 486.19029113139055
279.9380166213022 515.366423628301 432.81225652305005
314.28675596936887 568.970657883845 477.8298760722529
328.48733790929094 592.7096759113002 497.7662504440427
292.9295516953585 519.9610722787763 436.67090962726746
294.66064485611133 513.0690993030635 430.8829299709414
289.8584087584569 503.1140272270339 422.52251491180374
309.6597126881642 529.1503695797267 444.3882158357022
301.6273084317417 513.8348740781427 431.5260388216443
307.6369291389605 516.1321984033802 433.45536537375295
291.62779537137186 487.7985317254499 409.66033789774576
292.75908043055654 482.43810829989553 405.15857594282545
298.7509433670833 490.8616308257667 412.23277330055737
290.37228379431457 470.1857118986283 394.86883433157914
279.03807441673877 444.14936954593554 373.0031334076806
285.22665308816164 446.4466938711731 374.9324599597893
315.808718993425 486.2669821752915 408.37412019633996
312.6735504040482 480.1407839746579 403.2292493907168
316.3744506433674 479.3750091995787 402.5861405400139
-768.096375640788 1748.5229822746567 1463.238661482583
-440.9862829109674 1243.9053847585496 1040.9531179494516
-79.80631800789494 868.1263227784699 726.4851599992473
-33.44057034960223 398.7859433257989 333.7210982328698
-78.38788937586048 957.8531600267746 801.5724071016431
-22.157104692730982 509.9858698301082 426.77794293242005
132.42703348974248 1540.6941541183269 1289.3186275958374
155.0666865447874 1581.339644495764 1323.3325087618798
203.77078449256095 1884.2635822143998 1576.83218915031
162.62544558543829 1476.2748863503132 1235.4098348043738
238.35786609204646 1801.4388093698108 1507.5208841327137
280.3167267187843 1888.8649584835437 1580.6828172068429
243.739369121365 1620.4513427834866 1356.0628472424114
255.86903018811077 631.9223409624198 528.8195864305475
236.642324117583 568.2699692392634 475.55256498183945
238.37308113003888 569.803761328978 476.8361076673505
257.9356367795383 602.7802912578421 504.4322754058378
275.6177202865615 627.320964693276 524.9689583740144
257.8617592933363 584.3747861812668 489.02976317970536
268.94711121048726 596.6451228989837 499.29810466379365
265.2193265136597 585.9085782709815 490.31330586521636
262.9720846164989 569.0368652841207 476.194336324595
262.98060867088043 566.7361771495488 474.26902229632844
290.11574348533634 612.7499398409872 512.7753028616595
271.5850092851628 571.3375534186927 478.1196503528615
295.91763787504317 610.4492517064152 510.849988833393
282.5090646865488 580.5403059569803 485.82090646592775
290.99138024554145 586.6754743158388 490.9550772079719
297.0522376633868 596.6451228989837 499.29810466379365
287.06206914415304 565.9692811046915 473.6272509535729
295.92452966200284 581.3072020018376 486.4626778086833
300.9312657387103 580.5403059569803 485.82090646592775
302.4074852622401 581.3072020018376 486.4626778086833
291.1416868835214 549.8644641626881 460.150052755707
321.49588934321116 605.0809793924141 506.35758943410434
304.27538764245867 562.9016969252623 471.06016558255084
279.9380166213022 516.1210381889666 431.9121136744642
314.28675596936887 569.803761328978 476.8361076673505
282.65189541032015 510.7527658749655 427.4197142751755
296.3808571645232 526.8575828169689 440.8969124730414
286.5217225711735 507.6851816955363 424.85262890415345
308.2941970807971 537.5941274449711 449.8817112716187
281.91708249110195 490.04657266381827 410.09188802077654
307.8671817898246 526.8575828169689 440.8969124730414
298.4806748117385 509.2189737852509 426.1361715896645
306.7240599130289 515.3541421441093 431.27034233170866
281.6063535570115 464.7390031835272 388.9134337098444
295.4884525658827 486.2120924395317 406.88303130699893
318.7474255331727 516.8879342338239 432.55388501721967
292.1598127568329 472.40796363210023 395.3311471373996
303.5741809602796 483.91140430495983 404.9577172787324
333.1721282213346 522.2562065478251 437.04628441650834
338.1888644339039 521.4893105029678 436.4045130737528
329.0092130492527 499.2493252021059 417.79314413384276
-1193.2102289979941 1727.2656867298542 1440.3312978081276
-779.5461596352525 1769.5065105493927 1475.5550512005007
-33.697805506137634 402.4398487534209 335.5863050473361
-19.149544756627627 513.034005662758 427.8084957473674
134.33862332110263 1565.214526258534 1305.2001711573873
145.39492707973068 1516.061567632162 1264.2125308462623
181.7180953009235 1652.000218833222 1377.5689735817175
218.25489613331575 1787.9388700342822 1490.9254163171727
231.26942054621298 1724.193626815706 1437.7695702886824
297.78220202709525 2187.3066588735546 1823.9499938450633
301.11501022697036 2179.6265090881843 1817.54567504645
371.62867760011983 2132.7775953974233 1778.479330374909
239.65638170139846 573.7071889671859 478.40261425641233
249.40341469777238 583.6913836881678 486.7282286946096
276.2916022432524 629.7722824003915 525.1541414862893
264.62978447163914 600.5877132159831 500.81773005155884
265.8358978417284 590.6035184950013 492.4921156133616
270.41469078489035 585.9954286237789 488.6495243341936
270.80953071520975 584.4593986667048 487.36866057447094
261.43095783409535 552.9707845466852 461.1109535001565
291.08481213085275 601.3557281945202 501.45816193142014
269.82041448926657 555.2748294822964 463.0322491397405
282.62300068292456 570.6351290530376 475.84088673696704
270.72520342050205 534.5384250617957 445.7405883834846
274.4524331825699 539.9145299115552 450.2236115425139
300.13620294944025 579.8513087954824 483.526069295303
284.45453429020733 547.5946796969258 456.6279303411272
293.98407434263527 556.0428444608335 463.6726810196018
281.4754607755169 521.4821704266657 434.85324642584203
313.214452475246 578.3152788384083 482.24520553558034
286.36895530452585 519.9461404695916 433.5723826661193
285.1641143897378 507.6579008129985 423.3254725883381
313.78889556510694 556.8108594393706 464.31311289946314
318.84920525474735 556.8108594393706 464.31311289946314
299.1232894037044 520.7141554481286 434.2128145459807
308.7634472389944 529.1623202120363 441.2575652244553
286.7931785088692 489.99355630664604 408.5955393515275
308.09336375192635 518.4101105125173 432.2915189063967
307.19348617612326 515.3380505983691 429.7297913869514
285.3239291815265 471.56119682175654 393.2251742348557
295.95452268033995 487.6895113710349 406.6742437119436
296.0473121420862 480.7773765642013 400.9103567931916
285.29237608470015 455.43288227247825 379.77610475776777
323.24793950224637 514.5700356198321 429.08935950709
296.9684021003673 466.1850919719971 388.74215107582637
305.1482294910699 477.7053166500531 398.34862927374627
345.5865557097375 532.2343801261845 443.81929274390063
320.92296510948614 487.6895113710349 406.6742437119436
413.4905208465563 626.7002224862432 522.592413966844
-1206.350606074285 1727.469512306661 1435.3971868618758
-1005.9045972911248 1960.516378837791 1629.0415980903476
-992.3564506561137 1969.7459577103111 1636.7106836835546
-34.50901747029619 403.0249441000402 334.88340423669763
-20.255788784808214 574.5412848143703 477.40057817712426
165.89578589612074 1696.704249398261 1409.8335682178529
190.18033605791504 1868.220590112591 1552.3507421582797
229.80319079098282 1825.149222040831 1516.5616760566477
239.37258667992234 1814.381380022891 1507.6144095312397
374.43897728668895 2152.0301404425813 1788.1751241493891
238.24589351392467 558.3895217874604 463.97967838901235
267.5643497132611 595.3078372775403 494.6560207618396
270.0793665283079 598.3843635683803 497.2123826262419
270.41469078489035 586.8473899777304 487.62602563473337
255.86340681239923 553.0056007784904 459.5060451263084
264.69884480702154 560.6969165055904 465.89694978731404
264.29413655267524 557.6203902147503 463.34058792291177
283.2779397748529 586.0782584050203 486.9869351686328
257.1317642919843 529.9316535971903 440.33333114329133
297.07747447289915 600.6917582865103 499.1296540245436
268.0023924665602 529.9316535971903 440.33333114329133
285.4275413479445 552.2364692057803 458.8669546602078
271.68799137676183 523.7786010155103 435.2206074144868
276.929749587952 524.5477325882202 435.85969788058736
285.2308270472089 538.3921008970003 447.3633262703976
291.42451977200056 540.6994956151303 449.2805976686993
277.0263284840821 512.2416274248603 425.63425042297825
289.7529311426886 526.8551273063503 437.77696927888906
306.84282339588805 556.0821270693303 462.06240699071066
299.4007494500424 533.7773114607403 443.5287834737942
303.8342133609725 539.9303640424203 448.6415072025987
309.6135731025409 541.4686271878403 449.91968813479986
311.0352788047369 542.2377587605503 450.55877860090044
328.48128712072986 563.7734427964303 468.4533116517163
309.94037278872645 520.7020747246703 432.6642455500845
281.1416566039471 465.3246014895503 386.64973199084363
290.3616813068532 479.1689697983303 398.15336038065385
295.1014740841243 479.93810137104026 398.79245084675443
312.0797999902533 506.0885748431803 420.5215266941737
277.5947740318246 443.78891745367025 368.7551989400277
319.38826261266735 509.1651011340203 423.077888558576
288.16209034121306 453.01849632619025 376.4242845332345
308.09178154403844 483.0146276618803 401.3488127111567
306.85666081723343 474.55418036207027 394.3188175840504
327.1353254626087 504.55031169776026 419.2433457619726
316.87984113960283 482.2454960891703 400.7097222450561
-979.5693507452773 1947.181443008253 1612.224682854191
-974.794456003172 1944.8707055363286 1610.311441537513
-789.6282384008933 1752.3092495426326 1450.8746651476602
-784.4877358589929 1763.0926910782796 1459.8031246254918
-772.1025765137352 1757.7009703104561 1455.338894886576
-391.2007566309596 1126.8696404751083 933.0240154334184
-75.10724626322592 945.0916260170594 782.5156985213973
135.72287802657033 1585.9361515640794 1313.1212903468274
137.0210909474812 1564.3692684927855 1295.2643713911639
162.40922705714596 1698.3920418643977 1406.2323677585014
161.53406532405592 1654.488029897835 1369.880782741615
174.57773762997184 1621.3674594669194 1342.4576572025603
178.67678826659844 1629.0699177066672 1348.8351282581543
302.1736530401353 2226.0104312871244 1843.089135066698
353.47157628051457 2185.187402616461 1809.2885384720491
270.0602809673479 586.927317868785 485.9632944362712
256.57512699824736 555.347239085819 459.81566310833534
277.7703926987263 589.2380553407095 487.87653575294945
276.32407656127975 583.846334572886 483.41230601403356
280.3038931630434 580.7653512769868 480.8613175917959
295.9441060719065 610.8049384120034 505.73345470861295
281.1014771260851 569.2116639173651 471.2951110084048
293.9977159393417 593.0892844605834 491.0652712807465
290.56282608493535 575.3736305091634 476.3970878528801
270.9388173950263 534.5506018384998 442.59649125823125
299.3411401601702 579.995105453012 480.2235704862365
266.10262885212944 513.7539645911806 425.37731940812716
296.42040645044716 562.279451501592 465.55538705837006
297.4550053492321 562.279451501592 465.55538705837006
280.2318284009565 520.6861770069537 431.1170433581619
273.28272945051344 506.0515063514328 418.99984835253304
284.67696738544447 518.3754395350294 429.20380204148364
272.4662415216599 494.4978189918111 409.4336417691419
286.02694075702897 510.6729812952815 422.8263309858895
296.4764047753079 527.6183894227268 436.8567673081966
309.6135731025409 542.2530600782477 448.9739623138254
303.9763221226435 530.6993727186259 439.4077557304342
289.0456073572589 496.8085564637354 411.34688308582014
281.84846853457833 482.9441316321893 399.8674351857507
287.5538061684646 485.25486910411365 401.78067650242895
313.60288827219733 527.6183894227268 436.8567673081966
316.45862503683963 524.5374061268276 434.30577888595894
290.84520282329555 473.7011817444919 392.2144699190378
279.828392088525 454.4450361451223 376.27079228005255
300.20648006214657 480.63339416026497 397.95419386907247
324.8550560043557 511.4432271192563 423.4640780914489
340.47085412669213 534.5506018384998 442.59649125823125
314.31670929739306 486.79536075206323 403.0561707135478
334.6155539411744 516.8349478870798 427.9283078303648
320.92296510948614 489.1060982239876 404.969412030226
-1097.4954284966216 2056.4397053465946 1696.6472050116988
-1107.7579063309013 2157.4875678373687 1780.0158411169248
-677.9269769487933 1586.6828484238356 1309.0785073927475
-34.706588181003994 406.50552314990824 335.38374982789395
-76.75997295361475 967.282592087258 798.0478601217818
146.95393015988495 1761.0096951636444 1452.9053147193206
162.40922705714596 1700.8437923065421 1403.2659741375828
191.5896592563681 1887.5123627093462 1557.2752103014354
183.40851154015758 1644.534678094126 1356.808642567495
214.87982041991398 1767.9519147240792 1458.6329309402902
242.97159035227696 1766.4091992662047 1457.3601273356303
379.2644925236844 2211.4826088629734 1824.5639672800228
379.25663389223604 2186.0278038080455 1803.5627078031337
177.72965793342257 465.9000682780732 384.3866886073016
261.43095783409535 555.3775648347893 458.2092976775781
275.471067418853 571.5760771424706 471.57373552650745
260.94128999796266 529.1514020509243 436.57163639835915
295.52497680136423 597.0308821973985 492.57499500339645
279.2826092757478 553.8348493769149 456.93649407291815
286.22260413721455 555.3775648347893 458.2092976775781
293.2315325432011 566.9479307688474 467.7553247125276
278.14791564185794 528.380044321987 435.93523459602915
291.3429161982205 551.5207761901032 455.02728866592827
274.84275477786116 511.41017428536844 421.93439494476985
272.45081855416487 505.2393124538708 416.8431805261301
280.446997587741 511.41017428536844 421.93439494476985
275.8614594845467 501.38252380918476 413.6611715144802
288.18400667525697 515.2669629300545 425.1164039564197
278.73110171576394 496.75437743556154 409.8427607005004
296.859604892351 520.666467032615 429.57121657272944
279.2699737353169 488.26944241725226 402.84234087487073
312.79664176025847 538.4076947981707 444.20845802631874
300.3339753315074 507.55338564068245 418.75238593311997
282.47150666269454 475.92771875425694 392.6599120375912
301.1236255857153 499.83980835131035 412.38836790982026
310.70780204049623 506.7820279117452 418.11598413079
297.8512376806673 484.4126537725662 399.6603318632209
301.168680318756 482.8699383146918 398.38752825856096
299.4145998112435 472.0709301095709 389.4779030259414
333.11197399427084 523.7518979483638 432.1168237820493
305.36465112120146 473.6136455674453 390.7507066306013
345.0878738111665 533.7795484245474 440.3900472123389
319.9121841170153 488.26944241725226 402.84234087487073
-771.4734804950845 1776.6747536834926 1460.6254891736285
-36.801146643216576 403.2279223577318 331.49848058636263
-42.48104329282009 580.1229304418708 476.9259749432152
-40.689043668145224 587.847603283973 483.27652054831793
-21.47157039328457 578.5779958734504 475.65586582219464
188.41879107159315 1896.4071827360758 1559.0589460527208
189.85621457917074 1674.7090721677444 1376.7982871862723
199.26023507906223 1669.3018011782729 1372.3529052627005
275.471067418853 572.3982575997687 470.57542933811243
266.26662244690067 540.7270989471499 444.53819235719124
265.3615747764188 536.8647625260988 441.36291955463986
291.3407720717759 578.5779958734504 475.65586582219464
267.03479985331126 528.3676223997865 434.37731938902687
279.46457042841917 543.0445007997805 446.4433560387221
283.656625358117 549.2242390734623 451.52379252280423
271.6510300210262 516.7806131366333 424.8515009813728
304.27538764245867 566.9909866102972 466.1300474145405
277.44228393225643 515.2356785682128 423.5813918603522
280.446997587741 512.145809431372 421.0411736183111
276.9672639004715 495.92399646295746 407.7050278475954
296.4764047753079 529.1400896839967 435.01237394953716
278.38834058793805 488.9717909050656 401.9895368030029
307.8671817898246 530.6850242524172 436.2824830705577
280.49991126886266 482.01958534717363 396.27404575841047
304.4418868481998 515.2356785682128 423.5813918603522
285.6762077107316 482.01958534717363 396.27404575841047
318.31741284909714 529.1400896839967 435.01237394953716
276.8456479875936 458.8455668208672 377.22240894310227
295.1014740841243 482.01958534717363 396.27404575841047
269.39411306149526 438.76141743140164 360.7109903698352
293.47107826588046 471.20504336823063 387.38328191126664
315.0461261118909 504.42113658926985 414.6906280132084
297.94688118471777 470.4325760840204 386.7482273507564
333.11197399427084 524.5052859787354 431.2020465864755
294.423246683634 457.3006322524468 375.9522998220817
342.0957824197402 529.9125569682069 435.6474285100474
340.6331944626672 520.6429495576843 428.0267737839241
-43.10326896022491 589.4637586473999 482.8835027636375
-32.0077778744693 968.515256990216 793.3991410237194
134.1445424674552 1612.1292296865897 1320.6420206816542
145.93999609073663 1712.693912920398 1403.0237206282065
316.7362770841968 2152.857795689913 1763.6020842404241
254.85519577060492 518.2949058973201 424.58260741684666
258.10708568181167 522.9363528158035 428.3848397220721
289.4028552942947 563.1622261093269 461.33751970069306
266.10262885212944 515.9741824380784 422.6814912642339
297.2325171530511 566.2565240549825 463.87234123751006
277.08137484586007 526.0306507614592 430.9196612588891
289.3517991477332 539.9549915169096 442.3263581745656
272.04183927629913 495.86124579131666 406.2051512749234
308.46042630659986 553.105757785946 453.09934970603786
306.43108697944234 547.6907363810487 448.6634120166081
305.2156530300616 536.8606935712539 439.7915366377486
318.0942354868302 557.7472047044296 456.9015820112633
281.4273510393156 485.8047774679358 397.9669812802682
287.5538061684646 487.3519264407637 399.2343920486767
310.85600165959414 525.2570762750453 430.2859558746849
274.6358992610459 457.18252147062117 374.519882064711
304.08693563476265 497.4083947641445 407.47256204333195
295.0055252187501 481.1633305494524 394.1647489750427
277.5947740318246 446.3524786608264 365.6480066858515
291.40560516321915 467.238989794002 382.7580520593662
285.7158926303369 451.76750006572377 370.08394437528125
307.11059752638226 484.257628495108 396.6995705118597
294.423246683634 457.9560959570351 375.15358744891523
313.6709142011903 486.5783519543497 398.60068666447245
347.2032709137275 531.4456721663565 435.35559894831886
-80.65232137900337 886.2331560088433 723.4132934848552
-45.98078423070307 553.895722505527 452.1333084280345
-71.35871114519885 880.8104006836143 718.9868135422031
-41.63413058233306 924.9671226176214 755.0310073609415
-42.64826166420399 991.5895451847198 809.4134752278101
-21.35690246061015 577.136102470794 471.1039367536863
262.55677055867653 522.9085492185045 426.8391373271654
288.5068963327442 572.4880264777405 467.30981108855593
267.9361599840036 522.133869886329 426.2067830496437
266.10262885212944 516.7111145611001 421.7803031069916
271.6510300210262 518.2604732254512 423.04501166203505
273.1845782784472 510.51367990369556 416.72146888681783
271.61890765781624 505.86560391064216 412.92734322168747
273.25604893164507 500.44284858541323 408.50086327903534
276.71026397526833 505.0909245784666 412.2949889441657
274.8101979822435 493.47073459583316 402.8096747813398
275.7014158275491 493.47073459583316 402.8096747813398
305.6554450373095 538.4021358620158 439.48622287759997
277.84228924263647 480.3011859488486 392.0596520634705
282.7475067117221 487.2732999384287 397.750840561166
286.1845023295671 485.72394127407756 396.48613200612255
287.04965101703317 485.72394127407756 396.48613200612255
282.53574746314024 471.0050339627419 384.47140073320975
314.5973272586291 522.9085492185045 426.8391373271654
285.17017447552394 467.13163730186403 381.30962934560114
282.88687544317656 455.5114473192306 371.82431518277525
311.6689088335092 500.44284858541323 408.50086327903534
332.6828886791594 526.7819458793823 430.0009087147741
313.8193727320491 488.8226586027798 399.01554911620946
339.1036910283139 526.7819458793823 430.0009087147741
345.18170892878584 529.105983875909 431.89797154733924
-41.85881762541527 574.0785454159203 466.9409209880209
-44.80725108735174 996.8796362965643 810.8365992832524
-32.723606772620364 993.0007272059162 807.6815930603605
299.12118347229386 1795.934908970075 1460.7678811990113
266.3460344054635 519.7738181468467 422.7708338675324
294.8273504073818 573.3027635977907 466.30991974344244
268.40258721061036 512.7917817836801 417.0918226663267
271.7842309149833 517.4464726924579 420.8778301337972
265.7227840310845 497.2761454210877 404.4717977747586
272.4100549721044 499.60349087547655 406.3648015084938
245.30449781856612 448.4018908789215 364.71871936631896
252.37671243267263 453.83236360582885 369.13572807836783
253.1951778008104 453.83236360582885 369.13572807836783
288.5035567546404 508.912872693032 413.9368164434347
254.98752028880668 441.41985451575493 359.0397081651133
283.6465448888659 489.51832723979146 398.16178532897453
263.3627716812763 447.62610906079186 364.0877181217406
287.04965101703317 486.415199967273 395.63778035066093
282.0710505100759 470.89956360468057 383.01775545909277
281.04027901770866 467.79643633216205 380.49375048077917
263.88881817138036 432.8862545163291 352.09869447475086
288.3655294742766 471.67534542281015 383.6487567036712
291.0655776243568 469.3479999684213 381.755752969936
278.3791956608898 447.62610906079186 364.0877181217406
326.3227746308813 517.4464726924579 420.8778301337972
333.11197399427084 526.7558545100134 428.44984506873806
320.41757461325074 491.84567269418034 400.05478906270974
-1103.5357768603008 2000.4709978631336 1621.3391954518581
-42.69317845240117 602.860386152152 488.60552064879295
-43.586820123883015 971.1024261471522 787.057861869834
-40.28261590001768 939.2502665695256 761.2423640005035
-23.822263013110117 645.5888929026268 523.2360665710656
298.77505813206693 1862.962894320697 1509.8918022110895
271.61890765781624 507.3039074192723 411.1590270408013
275.43705723918583 504.19637965560145 408.6404418828178
247.63116741257107 445.9302340867723 361.4169701706278
293.4467188870931 526.7259559422154 426.90018427819797
277.9485485806901 490.98938666000015 397.93645496138805
273.0933866384853 480.8899214280698 389.7510531979418
280.53108559014584 486.32809501449384 394.15857722441285
259.37251410598356 448.26087990952544 363.30590903911536
290.2924138462595 494.0969144236711 400.4550401193715
264.15892924533995 448.26087990952544 363.30590903911536
289.04150480604153 483.22056725082297 391.6399920664294
276.8456479875936 461.46787290512674 374.0098959605451
268.61800846119 441.26894244126595 357.6390924336526
257.0626923931874 421.0700119774052 341.26828890676
281.4435750582624 454.47593543686725 368.3430793550823
272.1072207153238 438.1614146775951 355.1205072756691
280.3342576664093 445.15335214585457 360.7873238811319
297.2987573498205 470.7904561961394 381.5656514344955
293.92591011829 459.13722708237356 372.1209570920575
318.1590512883298 495.6506783055065 401.71433269836325
348.71944240243374 536.048539233228 434.45593975214837
-1103.5357768603008 2003.297720260906 1617.8452472339425
-42.08799164444188 595.1544683493565 480.64140354717125
-72.55588995752046 1055.7184490850677 852.5887380568776
-30.772857714312526 506.4647828698446 409.0164100773967
-29.718265812494657 505.6868031726559 408.3881206609952
-49.33853015769898 869.0033217597795 701.7992781205102
-30.08281579794521 642.6112298778673 518.9670579476647
-42.64826166420399 995.8140124015379 804.2104529939597
-22.42508343378366 643.389209575056 519.5953473640661
309.5871946434626 1864.0393544641286 1505.3814416980683
264.88769475839484 477.67953407386267 385.76970167054003
248.43424283361568 446.56034618631463 360.6381250144788
263.4354123415085 466.00983861603214 376.3453604245171
282.2979876231502 488.5712498345045 394.56575350016146
263.3627716812763 448.8942852778807 362.5229932636834
275.1005962141102 460.56398073571125 371.94733450970637
255.8491946787039 420.8870161790875 339.90457427322826
264.17697354798037 433.3346913341067 349.9572049356528
275.189273390301 445.00438679193724 359.38154618167573
279.826574494482 451.2282243694468 364.407861512888
306.26395340169677 487.0152904401271 393.30917466735843
288.468101190915 457.4520619469564 369.43417684410025
339.1036910283139 529.026194088317 427.2368031530411
318.39601262830905 490.1272092288819 395.82233233296455
356.23019136657973 546.9197271236571 441.6874597302763
-49.77500278960025 603.0041147053166 485.24430717779404
-43.83862656715788 603.7831897889151 485.8712378072227
-41.59283880156609 588.9807632005418 473.9595558480779
-49.33853015769898 870.2268683796365 700.2815130718294
-35.91981292571326 737.0050290842759 593.076375439526
-32.602941452664496 728.4352031646912 586.1801385158107
251.08247288173584 453.42169865438535 364.8736263274886
263.3627716812763 449.52632323639233 361.73897318034517
273.2418084018527 458.09614915597695 368.6352101040606
260.0671238671334 434.7238966480189 349.82729122120037
286.11601253348584 471.34042557715316 379.29303080434806
281.4435750582624 455.7589239051811 366.7544182157746
283.75893446163593 451.86354848718815 363.61976506863124
333.7128353458081 522.7593810946607 420.6704523466406
345.68709942502124 532.8873571814426 428.82055052921334
-1101.0525056468782 2037.7990688695115 1633.9886642552178
-1104.5187300703988 2051.061926515293 1644.6233531113965
-35.76103865214016 507.1092629269458 406.62045626565526
-58.40844139374503 877.6891089120217 703.7661743059418
-35.8307621312579 591.3674173824999 474.1820089990257
-27.821326945008074 651.4403608369228 522.350893818188
131.52136505726943 311.28707062746366 249.6024031538407
251.23441180271018 513.3506077014313 411.6250157273864
284.39453527539774 477.46287524813977 382.84879882243234
267.99031581290626 448.5966556661444 359.70271131192584
279.9680651567333 461.85951331192604 370.33740016810447
264.17697354798037 434.553629923552 348.44245252303074
278.55697428843405 451.7173280533871 362.2049910427914
278.8616552720872 450.93715995657647 361.579421110075
283.75893446163593 452.49749615019783 362.83056097550775
293.8646132880239 467.32068998960085 374.7163896971192
317.7980652548009 498.52741386202825 399.73918700577497
328.1326892597508 513.3506077014313 411.6250157273864
314.3528886584258 485.2645562162466 389.1044981495963
-1114.453164786306 2025.0226372201964 1617.945400421708
-1119.6000976256157 2075.023196163905 1657.8946695679228
-1147.79952586426 2216.4310269265807 1770.8761963720622
-62.130281138691366 792.9776144978779 633.5704403657537
-44.12145641597826 609.381812126448 486.88171771949544
-36.20117451247419 514.0682466400036 410.7284234095231
-34.45992822386149 569.5376167181803 455.04714386860536
263.3627716812763 450.78628922687244 360.16762964634466
246.39081409908454 407.03580015112743 325.21201914340656
268.4538715940349 435.942373290459 348.30769036856213
275.4844379937055 446.0987368258998 356.42238566388704
283.26969491946073 452.3488066938633 361.41604430716393
288.468101190915 459.38013529532236 367.0339102808504
302.38063172913763 475.0053099652313 379.5180568890426
336.6102815354586 527.3496451094262 421.3399480264864
-50.546708259206454 614.9247343998649 489.5544617540071
-42.76387314164046 591.4543246899464 470.86917695423585
-51.936031519415856 738.5355588721023 587.9636283661357
-48.98516557286318 867.6228122766541 690.7326947648777
-47.39414162147721 869.969853247646 692.6012232448549
-28.906779106159213 648.5656549840814 516.3367033003459
348.002472864632 984.9748608262468 784.159118763734
355.7151231715855 1001.4041476231897 797.2388181235739
130.476239979718 315.28583710323863 251.00565914359396
198.86640698269747 474.10227614035387 377.44275295537955
120.62487024766385 280.0802225383609 222.97773194393707
107.65733254435827 229.22766816687076 182.49294821109933
259.4197664411232 533.5606474054807 424.7788077814667
194.81047533158232 390.39114817497784 310.798570502862
249.81358134907435 419.33798681721066 333.8437550892466
248.2824902150084 410.7321699235739 326.99248399599713
271.7655401130929 448.2848254594435 356.88893967563115
275.189273390301 447.5024784691129 356.2660968489721
286.5057331556026 456.8906423530803 363.7402107688806
292.93123698760206 460.8023773047334 366.8544249021758
314.6682779983324 493.6609508986193 393.0138236218556
320.92296510948614 496.79033885994176 395.50519492849173
-1123.4245280366094 2094.899478339141 1661.827962111119
-1161.7149659480367 2210.8475422113147 1753.8064731030584
-1133.6391510298401 2195.178884931291 1741.3769445906341
-40.85709846572072 510.0147944647647 404.5811530794086
-48.173922419852325 616.5616639689244 489.1019469638933
-53.11544560846613 735.6434592971029 583.5663636583174
-42.58314448731766 606.3770367369092 481.02275343081754
-48.9409949997587 868.0436133133015 688.5958795883021
-27.45481844633132 645.5486799369679 512.0965747118781
308.06237516581774 1803.4624529307039 1430.6387317800284
328.70122105927516 962.8389898574436 763.7945270884687
107.65733254435827 229.54582915234417 182.09259270701492
111.26643562155328 232.67956060834885 184.57849840949976
257.5430745405822 526.4668846087893 417.632158017454
272.73890537892527 555.4539005768328 440.6267857654388
262.3499788032532 526.4668846087893 417.632158017454
258.76274628344464 515.4988245127729 408.93148805875705
345.45478193783254 680.8031588170207 540.0630138648327
212.94787046283224 406.6016564166096 322.54626489740866
284.73741354598644 455.95792684868366 361.699279711545
338.1062419814901 524.1165860167858 415.76772874059037
-1142.9445402067447 2216.2586921382044 1751.8054713699967
-48.96967971522472 627.6130809594915 496.08650516672475
-44.17802238574233 612.7072702867035 484.304450669015
-42.36307655715065 604.0775904235105 477.48326122297254
-40.74251153104686 597.8014596139157 472.52239617130533
-34.68163453424149 524.0569226011754 414.23223181421514
348.55529649110485 989.2751188623985 781.9563537690499
459.92853816326095 1298.374561234948 1026.2789575636618
191.66733019353114 464.4336799100237 367.1040138233763
347.3152788647236 822.9576524081332 650.4934298998678
194.8773969513636 459.7265818028275 363.38336503462585
107.65733254435827 229.86329090141376 181.69168251731293
108.1809455045698 228.29425819901502 180.45146625439614
195.55449127576168 411.0865680284669 324.9366608842047
202.70304031794458 422.8543132964574 334.2382828560808
251.81214865692604 519.3498244939792 410.51158302546474
266.96868876301005 544.4543477323589 430.3550432321337
259.44498661131445 523.272406249976 413.61212368275676
289.17022655888405 578.9730671851308 457.6398010163036
287.0176669264846 566.4208055659411 447.7180709129691
218.46475379778707 413.440117082065 326.79698527857994
288.468101190915 461.29561450522624 364.62358129754267
332.1221444483192 522.4878898987766 412.9920155512983
329.5146035454881 511.5046609819856 404.31050171088066
-43.668928657865656 606.4812303382619 477.66569611747093
-36.14615752993243 516.1375237464224 406.5108320585212
-41.27719016006322 606.4812303382619 477.66569611747093
440.31471889219523 1322.9461034839808 1041.9547050023589
346.6747772487744 990.6383827157362 780.2285528550917
387.79664821416304 1090.409258691072 858.8082722941057
282.81710318699965 758.8871353714521 597.7008580951773
264.49888453474284 633.1915435915014 498.70278636098647
105.3531109844457 227.0376626525359 178.81526706988225
235.48641983779697 495.7119900821804 390.4236454017152
243.88703565532387 511.42393905467424 402.79840436848906
194.8055192665961 406.93947838759027 320.5062572394429
275.2887703795654 566.4157604584027 446.11006075219757
252.35080666935824 515.3519262977977 405.89209411018254
246.99785082186608 498.85437987667916 392.89859719507
196.37208234826838 395.1555166582199 311.2251880143625
258.76274628344464 516.9231211950471 407.1295700068599
218.87929792264055 414.7954528738372 326.69363672282986
177.7192388359652 326.8085386278717 257.39498650889624
-1152.6545115217755 2241.2403598512756 1758.875393361828
-43.72549462762973 608.1006662565939 477.2238255769368
235.89081055794543 505.0460902156963 396.3488952398363
242.68300731588945 501.89938560376055 393.87943171809275
200.45298814046026 413.0049803165741 324.11708722883805
305.82148064350577 625.4075416222407 490.8058749465262
247.51471214473588 498.7526809918247 391.4099681963492
344.81002624907586 692.2750146258766 543.2819747835762
287.0176669264846 567.9801824544123 445.7381656747068
270.81166649373745 530.2197271111827 416.1046034137845
212.3669487309368 411.4316280106062 322.8823554679663
312.9389645317949 604.1672854916741 474.1369961747574
252.74737611773537 484.5925102381136 380.29738234850333
215.56294492381267 409.07159955165434 321.03025782665867
255.42785145505832 481.4458056261778 377.8279188267598
167.92980096882832 312.3104327346284 245.09425453304516
179.69033855947387 331.9773365592272 260.5284015439422
171.51888282669168 306.80369966374076 240.772693369994
251.83435877838016 397.2714572568951 311.7697696201204
-1156.775001528697 2213.5844153853245 1730.9373287219876
-37.33354004428929 519.9166242542044 406.55467507349175
344.20049255786324 986.2660811610059 771.2218987757752
348.83170830434125 994.143605770918 777.3818180950706
360.4999424309933 1000.4456254588479 782.3097535505068
192.94127394113994 408.84352725444256 319.6998126714276
229.51529033319358 484.46776350959954 378.8350381366628
198.1816311239114 416.7210518643547 325.85973199072293
245.19922502281977 513.6146045662746 401.62673961805547
243.44376909430918 504.16157503438 394.23483643490107
270.32517257799213 557.7287423817829 436.12228780610934
320.77909730724303 659.3488098496501 515.585247025019
308.51424839759954 631.7774737149574 494.0255294074854
268.7803384534007 544.3369505449322 425.6504249633073
349.9038107277554 703.4629476651584 550.080795213073
412.1327630775836 825.5645791187973 645.5595446621505
277.4769134552441 549.8512177718707 429.962368486814
305.3662708237989 598.6918703533263 468.15386826644504
277.74186029055596 538.8226833179937 421.33848143980055
213.92312028540667 413.57004202038985 323.3957642630048
313.20888828930543 603.4183851192736 471.8498198580222
262.9404353213836 496.2840504244678 388.07491711560573
186.97490052982923 340.3090631482065 266.10851459355825
251.83435877838016 397.81499280056545 311.07592562441414
-1162.1266296496483 2226.8568407255048 1735.0612700749282
-1136.8758081348506 2216.6020979237223 1727.0712606838642
-37.33354004428929 520.6254037827961 405.6466306232563
461.59155511553706 1324.4394741686583 1031.940443661284
466.5981967227282 1324.4394741686583 1031.940443661284
226.54647500169807 488.28352263871324 380.44737023605404
194.43490449364853 410.9785384406617 320.2149917495705
303.54394958946676 629.4834427555625 490.46365338993724
355.85178085125517 735.1861762508574 572.8222117285984
301.6166661658307 620.8063526925158 483.7028762128829
311.97637836714864 639.7381855573448 498.45366278100136
269.55828444024127 546.6566739719358 425.92896215441914
262.3499788032532 530.0913202152105 413.02202390731554
333.83879814115073 672.0800667014275 523.6529231682036
342.5263708402436 687.0677677194171 535.3306292012974
347.4424389110076 689.4342468275208 537.1744775223121
268.89531011444564 531.6689729539462 414.2512561213254
279.0624743296501 549.8119794494073 428.3874265824389
220.48805575697645 428.3327185667549 333.7365461036791
247.37777730421644 477.239953467563 371.84274473798496
215.40969555488812 414.1338439181332 322.67345617759025
253.70100441033338 482.7617380531381 376.1450574870195
217.96065484333187 413.3450175487653 322.05884007058535
240.40268372240783 454.3639887558947 354.0188776348419
248.75240226627912 468.5628634045164 365.0819675609307
235.81975922464613 435.43215589106575 339.2680910667235
182.91918986573194 334.46238061197806 260.59722937009195
237.18112382024634 432.2768504135943 336.8096266387038
199.2257792833111 357.33834532364637 278.421096473235
-1142.135375930492 2229.8817006806767 1731.1720310152464
-43.78206059739381 611.380955128177 474.6465292262843
356.24206909519415 991.3218329274705 769.614204365616
278.78252314582636 771.730223721226 599.1339264264597
478.3193929290161 1310.4405743638833 1017.3625219462606
219.9586938223272 474.72862278040617 368.5562843217014
225.60273782333098 484.9972951533601 376.52838364979146
360.8801394344686 763.8312449727999 593.0015423279289
308.324163355348 650.0859509954647 504.69521130908527
273.780729780081 575.0456528854172 446.4375623730426
343.48394295650183 713.2777809828732 553.7542840973317
353.9066191094658 726.7060448551975 564.179337064834
317.79093562435366 645.3465637464091 501.0157808499668
367.1443120402092 740.1343087275218 574.6043900323365
307.19493885478215 608.2213636288066 472.193575586872
363.5419321252831 717.2272703570862 556.8204761465971
397.37794979570674 781.2089982193373 606.4927873446967
273.00664874518566 529.231576144546 410.86973460156395
289.49333277914917 559.247695388565 434.17279417598104
311.83117832707615 600.3223848803806 466.0611914883412
220.78649251589192 417.85597579173856 324.4031188122796
238.5714905560136 436.8135247879611 339.12084064875353
183.51240237186943 334.9166989332649 260.0130857777061
291.4157524850919 838.424992600508 648.5703753509239
276.78510486330765 767.23796492688 593.5030793305624
284.8665024854562 769.6108658493342 595.3386558645744
233.47236928794902 508.59176437936475 393.4252371232491
358.150546983855 756.16442728876 584.9370555051728
311.38797288174044 654.9206545973778 506.61912338732543
309.2496629276146 643.0561499851066 497.44124071726515
300.48857460293755 622.4910086571696 481.5329107558274
299.7004230516894 618.5361737864125 478.473616532474
273.83698736786414 556.8407498026015 430.7486266481607
367.36805067538876 744.2999226764887 575.7591728351126
340.89173049624543 688.1412675117376 532.3171948634941
377.9194516388911 760.1192621595171 587.9963497285262
400.37657723048795 790.9669741514226 611.8588446706829
274.42784601665085 540.2304433454216 417.89959091007637
313.75390975192977 609.0445700965954 471.1313103964258
412.159999210992 797.294709944634 616.7537154280483
421.38239492356206 812.323082453511 628.3790334767913
217.6356655480801 415.25766142949686 321.2258934521085
178.41291909104157 331.4151621694461 256.3688559170161
259.2545495772401 473.78921751670214 366.503447957739
203.38618940281376 364.6357750838058 282.0669273931848
201.37231484675104 359.88997323889726 278.3957743251607
285.4708931686961 508.59176437936475 393.4252371232491
179.03034501560043 302.94035109999487 234.34193750887152
388.5035888000267 2151.1634315262977 1658.0566609329137
358.96459991550626 996.3783493593824 767.9805889004439
221.12701850133897 482.3485013989379 371.7807461370193
302.67194640776137 655.0118401591488 504.8648227509277
267.29243923637694 569.4722044430811 438.93326185963366
234.36683305568386 497.3971410156535 383.3798170345618
315.52476962292303 664.5162441276008 512.1905517388493
289.85023757791186 603.5296519967006 465.18379073301924
296.2886072323755 614.6181232932279 473.73047455226106
449.1673859547059 928.2634542521432 715.4795311536726
311.1501980746916 631.2508302380189 486.5505002811238
431.01253281134484 871.2370304414313 671.5251572261433
369.26780966588836 743.7196105313673 573.2382933048623
400.94923837539744 795.9938323578532 613.5298027384309
353.98379552074584 697.7816580171827 537.8306031965748
274.4934174801401 535.4147568894614 412.682732986248
241.22378515992523 468.8839291102976 361.4026300707971
390.9151097368372 746.8877451875179 575.6802029675029
252.06900159362428 479.9724004068249 369.9493138900389
249.1711773542695 471.26003010241055 363.2340623177775
275.3710338304968 515.6139152885198 397.4207975947448
330.86825936611325 603.5296519967006 465.18379073301924
242.65163594695784 435.61851522071566 335.76257861307164
201.37231484675104 360.37531713713753 277.7672241253593
177.16057639924952 300.180758670275 231.37094053518936
569.8349014556964 1583.8165886802565 1216.3609716779122
356.7861450562016 873.993931259711 671.2217279865094
353.10272923000406 853.3733847871588 655.3852806837424
367.53464170139205 884.304204495987 679.139951637893
358.30209858911536 776.4428844857141 596.3031503618809
304.9678703474995 658.2712912391652 505.5481254344853
263.9466367980913 563.0995382889245 432.45683019094525
332.8904698816401 707.4433635967896 543.3119613103144
330.9313736125765 689.9952088892454 529.9118905156654
292.8522702928248 608.3061209402888 467.1751954316268
252.560842443815 522.6515432850722 401.39302971244075
359.2921546176533 740.7534771293739 568.8939146455533
327.12628746644 666.9953685929373 512.2481608318099
277.9660489701135 564.6857341714285 433.6750184450043
400.4498259392676 810.5460959595504 622.4941978241494
359.829654786249 725.6846162455857 557.3211262319928
322.00042965436637 642.4093324141251 493.36624289389533
309.98762011709834 616.2371003528089 473.2661367019218
337.91783118253187 669.3746624166934 514.0754432128983
396.5743543461704 782.7876680157302 601.1759033781169
311.85050979992246 609.0992188815408 467.78428955865627
398.91568525602503 776.4428844857141 596.3031503618809
370.0444437360593 717.7536368330657 551.2301849616979
393.07140636491965 759.787827719422 583.5121736942614
233.38834229251256 446.51414092487954 342.9199935176087
245.4137144228355 467.9277853386837 359.36553494740525
275.3710338304968 516.3067597550561 396.52027669620475
230.6932427197625 428.2728882760834 328.9108285959302
293.0139066173481 536.9273062276083 412.35672399897175
390.78928271588177 713.7881471268056 548.1847143265503
243.06888089508615 442.5486512186195 339.87452288246124
202.3043233340466 364.8250529759229 280.1832984335702
