# .PCD v.7 - Point Cloud Data file format
VERSION .7
FIELDS x y z
SIZE 4 4 4
TYPE F F F
WIDTH 861
HEIGHT 1
VIEWPOINT 0 0 0 1 0 0 0
POINTS 861
DATA ascii
103.62652113728474 276.21245253580753 167.43858893383654
112.5596990017578 293.3153907733188 177.80630341890384
89.62630023988432 227.4690785589003 137.8906026513948
75.36050159882548 186.42202678887318 113.00808788723334
75.33062022704732 185.5668798769976 112.48970216297997
383.1436715467881 737.9917849486126 447.3668800306531
392.28680245021775 743.9778133317416 450.9955801004266
-55.75084438426534 185.7629287106049 112.16565569218912
-54.62123571089582 187.4750294360483 113.1994405372784
-83.53160587389071 494.797109653132 298.7638202308079
-75.94536288174456 475.10795131053334 286.8752945122809
-66.05275940829377 477.6761023986984 288.42597177991485
-47.20048215971691 453.7066922424913 273.95298394866467
-40.56287704397949 481.9563542123068 291.0104338926381
-9.862410509847173 253.39090736561778 153.00015707321649
-2.511230144005699 120.70310114375711 72.8818315787957
-4.292366587832258 225.99729575852396 136.45959955178768
-2.370359925861653 291.9131736880934 176.26031608772576
0.26751255282657177 284.2087204235983 171.6082842848239
17.808600414458468 333.00359109873415 201.07115236986897
23.23912095608952 420.3207280963457 253.79417946942328
26.614215865144427 402.3436704791904 242.93943859598562
32.36519335164936 420.3207280963457 253.79417946942328
36.606524193832904 425.4570302726758 256.89553400469117
41.43634543461584 471.6837498596466 284.80772482210233
46.210970771550514 468.2595484087599 282.7401551319237
48.1322733508887 446.8582893407178 269.81784456830746
54.75122823962904 499.9334118294621 301.86517476607577
50.83750145258207 428.8812317235625 258.9631036948698
54.5981260086828 453.7066922424913 273.95298394866467
59.903796715295705 463.1232462324298 279.6388005966558
61.97283860619906 472.5398002223683 285.32461724464696
70.30485628223778 501.64551255490545 302.8989596111651
69.9921852443323 493.08500892768865 297.73003538571857
79.49494031546863 520.4786205347824 314.2705929071474
82.78393618507567 511.91811690756566 309.10166868170086
77.68389105534747 475.10795131053334 286.8752945122809
87.9978161329336 510.20601618212226 308.0678838366116
85.03349188533235 487.94870675135854 294.6286808504507
94.0772617562557 508.4939154566789 307.0340989915223
92.64669265941404 477.6761023986984 288.42597177991485
100.03521215392344 511.06206654484396 308.58477625915623
99.51666525475376 486.2366060259152 293.59489600536136
109.3974742201512 529.8951745247209 319.9564095551385
111.17035407590046 516.198368721174 311.6861307944241
113.94854748968143 524.7588723483908 316.85505501987063
108.36159877539598 479.38820312414174 289.45975662500416
126.57103242905147 555.5766854063714 335.463182231478
119.34720331038109 504.2136636430705 304.449636878799
129.8367337569825 544.4480306909895 328.74358073839755
135.93274631587988 549.5843328673196 331.8449352736655
132.64101724586973 532.463325612886 321.50708682277246
131.38868707606105 509.3499658194006 307.5509914140669
128.06447773065034 493.08500892768865 297.73003538571857
128.04887627522888 476.8200520359767 287.9090793573702
125.88151143463293 465.69139732059483 281.18947786428976
130.0809948176414 463.1232462324298 279.6388005966558
135.14234246471074 466.54744768331653 281.7063702868344
131.22135291021365 450.2824907916046 271.88541425848604
135.68250060607053 451.9945915170479 272.91919910357535
113.98678173285796 377.51820996026163 227.94955834219078
104.03968673072256 333.00359109873415 201.07115236986897
109.96820848494033 342.42014508867265 206.75696901786011
95.63848737979562 296.1934255017019 178.844778200449
110.98856495316409 334.71569182417755 202.10493721495826
103.00971428417945 309.0341809425271 186.59816453861876
114.75921621528941 333.85964146145585 201.5880447924136
111.01053658953212 315.02653348157884 190.2164114964313
98.82293459288616 279.0724182472682 168.50692974955598
114.32922001902121 306.46602985436203 185.0474872709848
114.85540113668091 306.46602985436203 185.0474872709848
114.52867332831916 298.7615765898669 180.39545546808296
383.58763872123393 739.627513391533 446.59505307857785
526.0082630293252 960.4885069737269 579.9532980950976
-164.50077064960908 292.22036120846786 175.75056328556266
-55.36947181652453 190.24316770756556 114.41825527681793
-80.90252649887209 442.1868222392065 265.9451338866579
-82.01716565521376 471.32316323946424 283.46865046058497
-76.1553477970059 442.1868222392065 265.9451338866579
-71.91448460477176 440.4729198274266 264.91433879407396
-69.74121620543296 462.75365118056493 278.31467499766524
-61.27629605763452 437.9020662097568 263.368146155198
-64.76549624960009 515.8846259457408 310.2693228677675
-56.21372153612288 467.8953584159045 281.40706027541705
7.205333838635468 317.9288973851659 191.21248967432186
15.896656335460053 358.20560406199286 215.43617435004458
23.42844169707599 424.19084691551785 255.12178541452647
25.11511618900773 390.76974988581037 235.02128110913952
33.27866048736773 443.0437734450964 266.46053143294984
38.27785812381027 436.1881637979769 262.33735106261406
46.54889377536441 472.1801144453542 283.98404800687695
44.25956170196662 411.3365788271688 247.39082222014687
47.15730788447501 431.04645656263733 259.24496578486225
49.619836747131 419.0491396801782 252.02940013677463
49.859420732457494 414.7643836507285 249.45241240531476
53.592306118674905 414.7643836507285 249.45241240531476
60.2887940788567 460.1827975628951 276.7684823587893
64.9060191957178 463.61060238645484 278.8300725439572
67.92644366594055 479.0357240924737 288.1072283772127
70.1610378511687 465.3245047982347 279.8608676365412
78.84119902997958 516.7415771516308 310.7847204140595
76.83124512160033 475.6079192689139 286.0456381920448
81.74304932670796 500.45950423972204 300.992167034512
82.83015914526132 480.7496265042535 289.1380234697967
81.75149746168795 469.6092608276844 282.437855368001
85.32488552990353 466.18145600412464 280.3762651828331
93.76050329916393 507.3151138868415 305.1153474048478
97.46166414171334 503.03035785739183 302.53835967338796
99.70008581504932 509.8859675045113 306.66154004372373
102.8455677896839 503.03035785739183 302.53835967338796
118.03805490366673 544.1640157401088 327.27744189540266
116.48871868355067 515.8846259457408 310.2693228677675
112.13920438629368 492.74694338671264 296.35358911788427
130.28905217075558 551.0196253872282 331.40062226573843
124.28741758165343 503.03035785739183 302.53835967338796
118.77981769445248 477.3218216806938 287.07643328462876
136.9092201464838 531.3097476517597 319.54647870102303
126.06347026610894 485.89133373959316 292.2304087475485
135.86514520405794 506.4581626809516 304.5999498585558
125.88151143463293 466.18145600412464 280.3762651828331
118.27494523944803 424.19084691551785 255.12178541452647
121.42495819391665 432.76035897441716 260.2757608774462
122.9919300229294 425.04779812140777 255.63718296081845
113.50896496986162 389.91279867992046 234.50588356284754
132.85578184344405 443.0437734450964 266.46053143294984
105.97410546592236 351.3499944148734 211.31299397970878
110.37298468674288 355.634750444323 213.88998171116864
107.51659142866446 344.4943847677539 207.189813609373
107.49392379402917 335.06792150296457 201.5204406001613
103.60825117111224 312.7871901498263 188.12010439657
101.58298693952322 305.07462929681685 183.48152647994226
95.73622437075454 280.22304432600873 168.53499763747504
95.92693457995986 279.3660931201188 168.0196000911831
99.12607242906066 280.22304432600873 168.53499763747504
109.82224214140976 301.64682447325714 181.41993629477437
113.37115392947634 304.21767809092694 182.96612893365028
101.05991999456562 269.93962985532954 162.35022708197138
86.36240011279347 224.52121594316299 135.03415712849684
-369.543163489853 600.494607045338 359.73077003429273
-192.71186164586476 410.05203166810225 245.64472582341702
-76.16303933981447 165.56494165678603 99.18291230945499
-56.85137757246043 188.72687649996337 113.0582420107777
-54.54005924107041 188.72687649996337 113.0582420107777
-92.37203942160252 486.40063170672374 291.3819237277771
-86.3901009706948 472.6750406885446 283.1595061269933
-76.00775991367837 441.7924608976415 264.65906652522966
-74.43289068042525 456.37590135445686 273.39538522606244
-65.47925299287873 434.92966538855194 260.54785772483774
-65.22108688885704 460.66514854763784 275.96489072630743
-61.42082707131 476.1064384430894 285.2151105271892
-55.16826460466012 466.67009461809124 279.56219842665035
-49.37844150787793 467.52794405672745 280.07609952669935
-45.67167872356828 464.0965463021826 278.02049512650336
-43.7329775589619 520.7146092521716 311.93796772973667
-43.28717248838118 526.7195553226251 315.5352754300796
-36.58938311139044 500.1262227249029 299.6043413285609
10.945016034794346 326.8406361203911 195.79631911866502
15.820595778831057 356.865366472658 213.78285762037967
25.996348335990458 404.90493503628505 242.5613192231231
23.160030401795893 350.8604204022046 210.18554992003675
30.38206528053688 404.90493503628505 242.5613192231231
32.36519335164936 421.2040743703728 252.3254401240539
33.73398004180175 392.89504289537825 235.36670382243724
42.21380924164164 436.64536426582436 261.5756599249357
41.98693322387679 426.35117100219 255.40884672434782
44.905013643453636 417.772676615828 250.26983572385794
51.6574088356774 472.6750406885446 283.1595061269933
47.996283806529576 405.76278447492126 243.0752203231721
49.34434407199822 410.9098811067384 246.15862692346602
53.592306118674905 415.1991282999194 248.72813242371097
63.88142240385374 488.11633058399616 292.40972592787506
61.66671694380583 440.93461145900534 264.14516542518066
67.92644366594055 479.5378361976342 287.2707149273852
67.83525759090897 450.37095528400346 269.7980775257195
76.74922691641461 503.5576204794477 301.6599457287569
73.6472475760205 456.37590135445686 273.39538522606244
77.96383300509646 477.8221373203618 286.2429127272872
82.09192243273671 476.96428788172557 285.7290116272382
85.48103657946568 491.54772833854094 294.46533032807105
92.5398574680939 506.1311687953563 303.20164902890383
90.909677185338 492.40557777717714 294.97923142812004
94.97116165086888 490.6898788999047 293.95142922802205
92.15974319038172 471.81719124990843 282.6456050269443
95.48694113352254 467.52794405672745 280.07609952669935
104.9791594293535 509.5625665499011 305.2572534290998
117.99175225302868 549.0236407271661 328.89670403135335
102.79534545153969 474.390739565817 284.1873083270912
121.90679862232047 540.4451463408042 323.75769303086344
125.59590891264892 552.455038481711 330.9523084315493
119.54983014112877 506.1311687953563 303.20164902890383
122.0791930608106 512.9939643044459 307.31285782929575
124.07568433194021 502.6997710408115 301.1460446287079
118.56656847058453 476.96428788172557 285.7290116272382
137.79250543775143 535.298049708987 320.6742864305695
127.39747524246988 491.54772833854094 294.46533032807105
130.34777890135507 486.40063170672374 291.3819237277771
123.79891289986878 458.9494496703655 274.93708852620944
130.22190940504885 467.52794405672745 280.07609952669935
130.0809948176414 464.0965463021826 278.02049512650336
122.48989406637814 421.2040743703728 252.3254401240539
133.6267051423422 446.0817080908225 267.2285720254746
111.40204745320132 369.733108052201 221.49137412111452
110.63894368598805 356.865366472658 213.78285762037967
110.99349612660635 356.0075170340218 213.26895652033068
103.64503649705627 323.4092383658463 193.74071471846906
103.93084177688772 322.5513889272101 193.2268136184201
97.36337027860685 294.24235745221563 176.26807731680344
103.00971428417945 309.68364734766715 185.51829711768525
95.44345304240362 279.65891699540026 167.5317586159706
113.28794421252928 330.2720338749359 197.85192351886099
113.42380912408717 322.5513889272101 193.2268136184201
98.51979675671166 278.80106755676405 167.0178575159216
110.26256228743621 288.23741138176223 172.6707696164605
113.72148106455629 295.958056329488 177.2958795169014
91.02993864817255 230.76149899313702 138.23939591317819
-44.27289000357269 133.96422908299058 79.9348817863642
-49.19101861658783 152.85662036392515 91.20774973059505
-56.26467705140143 188.06516775112138 112.21627635393436
-54.044240520697045 187.2064226928971 111.70387326556023
-46.356714307398875 188.06516775112138 112.21627635393436
-88.4709422861766 462.0048413246726 275.6728615452817
-87.48761586505935 479.1797424891586 285.9209233127643
-84.2539974458105 485.1909578967287 289.5077449313832
-75.7125841470233 440.5362148690652 262.86278433592844
-77.09120820472614 473.16852708158854 282.3341016941454
-69.32594348040645 430.2312741703736 256.7139472754389
-69.39567587899555 455.9936259171026 272.08603992666275
-69.99951700619383 465.4398215575698 277.7224738987782
-66.67854134447397 471.4510369651399 281.3092955173971
-66.79236184755857 478.3209974309343 285.40852022439014
-67.28623938622789 522.1169954003735 311.54107773147075
-56.7284992058676 473.16852708158854 282.3341016941454
-66.32361222692596 561.6192680786912 335.1116197966807
-57.808118230115056 529.8457009243922 316.1527055268379
-51.234042448716295 477.46225237271 284.896117136016
-51.66555892573712 525.5519756332708 313.59069008496726
-43.51086272884565 459.4286061499997 274.13565228015926
-29.995471087817965 481.7559776638315 287.45813257788666
-17.725683754184786 456.85237097532683 272.5984430150369
-1.4175993761343249 121.0830532096261 72.24883546075226
18.769990154056483 352.0854738719624 210.0852662333931
22.030803674568183 343.4980232897194 204.96123534965182
26.557589873941993 402.751432307196 240.31704844746673
27.227994944209957 363.2491596288783 216.7465063822568
28.27834612598284 368.4016299782241 219.82092491250157
42.21380924164164 437.101234636168 260.8131719824319
40.46627970671425 411.33888288943905 245.44107933120804
44.07514686154176 410.48013783121473 244.92867624283392
50.344879391576704 461.14609626644835 275.1604584569075
47.7933396889544 404.46892242364464 241.341854624215
55.21621800123392 460.28735120822404 274.6480553685334
61.97283860619906 474.0272721398128 282.8465047825195
62.266587731196935 445.68868521841097 265.9372028661732
68.41250050791508 483.4734677802801 288.4829387546349
71.1947179668397 473.16852708158854 282.3341016941454
71.65004488960001 470.59229190691565 280.796892429023
76.27750641802123 473.16852708158854 282.3341016941454
77.82386203022197 477.46225237271 284.896117136016
82.09192243273671 477.46225237271 284.896117136016
83.39249467351014 480.0384875473829 286.4333264011384
87.20705212247493 477.46225237271 284.896117136016
93.12698638498038 504.94209423588757 301.2930159639881
93.31082665697257 482.61472272205583 287.9705356662608
93.16512220700407 477.46225237271 284.896117136016
96.4959950310219 468.874801790467 279.77208625227473
106.93002547930725 498.07213377009316 297.1937912569951
102.79534545153969 474.8860171980371 283.35890787089363
108.16809592043991 480.0384875473829 286.4333264011384
109.60388324364703 482.61472272205583 287.9705356662608
120.9682179563625 512.6707997599062 305.90464375935534
120.65017240625262 507.51832941056045 302.83022522911057
134.45061356788744 545.3031119724296 325.3759611175722
121.7653068286039 490.3434282460745 292.58216346162794
124.32240474591995 483.4734677802801 288.4829387546349
126.06347026610894 486.9084480131773 290.53255110813143
131.52366758826219 469.73354684869133 280.28448934064886
120.24466179224902 413.91511806411194 246.97828859633043
123.60470225666653 413.0563730058876 246.4658855079563
116.82998944048026 388.15276631738294 231.60619594510655
108.05149984373244 346.9330035226166 207.01084770314833
105.01963910311802 328.0406122416821 195.73797975891748
101.9051018367926 308.2894759025232 183.9527087263125
104.81213554963342 307.4307308442989 183.44030563793837
106.2258385992807 310.0069660189718 184.97751490306075
107.69228685451893 306.5719857860746 182.92790254956424
117.92061827187949 334.0518276492522 199.32480137753637
121.72410173997503 336.62806282392506 200.86201064265876
108.26226711099201 297.9845352038316 177.80387166582295
113.37115392947634 304.854495669626 181.90309637281598
103.62652113728474 277.37465380644846 165.50619754484384
113.54418616503848 297.1257901456073 177.29146857744882
114.38073602724937 297.9845352038316 177.80387166582295
116.58157850751869 297.1257901456073 177.29146857744882
-44.55669058051867 134.9631757223857 80.21185198540452
-54.12241164047668 186.5414594379471 110.86606293524063
-64.68218483021616 250.15467602047286 148.67292310670518
-39.90588805421802 169.34869819942665 100.64799261862859
-34.239565530328065 152.15593696090616 90.42992230201655
-89.05549428558012 488.27441917398136 290.1931969917819
-78.28911267088586 451.3099825111624 268.22434581106603
-81.17333583014195 472.80093405931297 280.9969337068311
-70.5153701182976 433.2575832107159 257.49537197862344
-75.55282463134117 469.3623818116088 278.9533196435087
-70.83325108552842 465.92382956390475 276.9097055801863
-69.87036660581339 465.0641915019787 276.39880206435566
-68.0145412621228 481.3973146785732 286.10596886513713
-71.46902632162461 512.34428490791 304.4984954350388
-61.827653375877034 473.660572121239 281.5078372226617
-64.18753099344109 498.59007591709366 296.3240391817492
-66.71518599891508 557.0454641280633 331.0654782582301
-65.81655097136841 557.9051021899893 331.5763817740607
-57.43334923024397 526.9581319606524 313.18385520415904
-51.14189489035529 477.0991243689431 283.5514512859841
-50.06156281529758 509.76537072213193 302.965784887547
-44.835310828355794 465.0641915019787 276.39880206435566
-43.48138272970059 468.50274374968285 278.4424161276781
-44.258715235652616 506.32681847442785 300.92217082422457
-38.85817247120997 453.88889669694044 269.75705635855786
-36.550581480943485 477.0991243689431 283.5514512859841
-29.018342488970315 440.9943257680501 262.0935036210988
-18.55055064472461 457.3274489446445 271.8006704218803
-1.4175993761343249 121.20896673156932 72.03739573211489
18.99889247300839 356.7497956992998 212.02495906969983
26.614215865144427 404.02988910523106 240.12465244038293
26.71304468521781 356.7497956992998 212.02495906969983
28.08059545377317 366.205814380486 217.64489774383645
40.04387595194688 407.46844135293514 242.16826650370535
53.77400335194796 448.7310683253843 266.69163526357426
58.79651766325697 456.4678108827185 271.2897669060497
53.66488560464339 410.9069936006393 244.21188056702775
59.2672337942414 424.6612025914556 252.38633682031738
66.95432998199149 473.660572121239 281.5078372226617
70.41945788008645 468.50274374968285 278.4424161276781
72.30378617508906 475.379848245091 282.52964425432293
75.03159433496825 465.92382956390475 276.9097055801863
76.00423935685347 466.7834676258308 277.4206090960169
86.37369536537946 502.8882662267238 298.8785567609022
87.20705212247493 477.9587624308691 284.0623548018147
86.63343801459911 470.22201987353486 279.46422315933927
92.48065916002442 478.8184004927951 284.5732583176453
84.78696373515119 434.9768593345679 258.5171790102846
100.74310303078066 494.29188560746354 293.76952160259617
103.05842110850473 480.53767661664716 285.59506534930654
115.80741449603839 535.5545125799126 318.2928903624651
108.36159877539598 481.3973146785732 286.10596886513713
115.64964904534287 509.76537072213193 302.965784887547
111.03950324972638 471.0816579354609 279.9751266751699
121.6709014452226 512.34428490791 304.4984954350388
117.51195359083076 477.0991243689431 283.5514512859841
118.35331924671657 477.0991243689431 283.5514512859841
121.01008490366631 471.0816579354609 279.9751266751699
130.73248768337223 505.4671804125018 300.411267308394
120.69238787162507 451.3099825111624 268.22434581106603
127.26991045780903 472.80093405931297 280.9969337068311
122.09797377244028 439.275049644198 261.07169658943764
128.87876750879073 460.7660011923486 273.84428448520265
133.90250446044732 464.20455344005273 275.8878985485251
120.49413204493003 415.2051839102694 246.76639814618076
129.77208864785155 434.11722127264187 258.00627549445403
127.68587341503816 424.6612025914556 252.38633682031738
134.84121261729794 435.83649739649394 259.0280825261152
115.2727634471502 370.5040046901162 220.19941532298947
119.86534724858497 374.8021949997463 222.75393290214248
101.9051018367926 308.61006423144244 183.4143621831861
117.70176022080965 343.8552247704094 204.3614063322408
117.61748043570499 333.53956802729715 198.23056414227358
108.37171302870226 300.0136836121822 178.3053270248801
109.19825212924266 300.87332167410824 178.8162305407107
112.73244320311309 303.4522358598863 180.3489410882025
110.26256228743621 288.83838880714393 171.66358131908228
81.6971743231548 193.4185639333553 114.95329106188545
-181.47010121731395 332.1639805501566 196.62932137673457
-44.79019245500621 135.1029661823176 79.97617475685836
-48.63831054224415 151.45300667571908 89.65482010959919
-39.90588805421802 169.52410406316284 100.35227023631272
-89.68264565378844 492.22227169608703 291.3781653561973
-77.24525783527405 445.75373555694597 263.87043645893397
-85.60097232996787 499.1064992722561 295.4533844520882
-83.24731194521245 512.0144259775731 303.0944202568836
-83.44020742252513 518.8986535537421 307.1696393527745
-78.6745703938895 518.0381251067209 306.6602369657881
-71.03272020923727 473.2906458616221 280.17131284249746
-64.00654150917629 453.49849158013615 268.45505794181116
-70.5097105320726 505.99072684842514 299.52860354797906
-67.21372844310407 515.4565397656576 305.132029804829
-61.86349969885097 481.03540188481236 284.75593432537465
-61.464453767518975 513.7354828716153 304.1132250308563
-55.26967685577163 468.9880036265165 277.62430090756567
-50.87489173249996 467.26694673247425 276.6054961335929
-57.59222397562533 537.830279388207 318.37649186647434
-49.13293348820099 500.82755616629834 296.47218922606095
-44.586686184205945 462.9643044973686 274.0584841986611
-44.258715235652616 506.85125529544626 300.03800593496544
-40.47726299084371 473.2906458616221 280.17131284249746
-39.579999045129796 517.1775966596998 306.1508345788017
-35.434142812751595 474.1511743086433 280.6807152294838
-32.58199858410702 495.6643854841716 293.4157749041428
9.411827537406506 222.01633933145183 131.4258158424806
14.237724238808697 267.6243470235718 158.42414235275766
23.046778419391025 350.2350779376004 207.3267715034481
32.77646532445803 382.93515892440337 226.68406220892976
40.2233742282833 417.35629680524863 247.0601576883841
42.40933697864416 431.98528040460786 255.71999826715222
46.93357688812711 438.0089795337558 259.2858149760567
48.199227924104754 408.75101233503733 241.96613381852052
49.859420732457494 416.4957683582275 246.55075530139774
53.592306118674905 416.4957683582275 246.55075530139774
53.440346334331075 409.61154078205846 242.47553620550687
56.02793154232942 401.8667847588683 237.89091472262965
65.37464524557427 462.9643044973686 274.0584841986611
60.47028676675314 402.7273132058894 238.400317109616
73.34977223187154 482.7564587788546 285.7747390993474
74.89315965907348 465.54588983843195 275.5866913596202
79.64348470359047 489.64068635502366 289.8499581952383
80.17250698017273 467.26694673247425 276.6054961335929
83.09413154408793 479.31434499077005 283.73712955140195
84.54064944966545 463.8248329443897 274.5678865856475
88.8507472142415 482.7564587788546 285.7747390993474
95.46926214903777 494.8038570371504 292.9063725171564
92.32730635981878 474.1511743086433 280.6807152294838
96.53817351297415 474.1511743086433 280.6807152294838
109.51109505984225 511.15389753055194 302.58501786989723
107.0707395661607 495.6643854841716 293.4157749041428
108.36159877539598 481.8959303318335 285.26533671236103
110.7740314633301 488.78015790800254 289.3405558082519
107.59484712701588 456.94060536822064 270.4926674897566
130.2450253725705 549.0171491994817 324.99872289729706
131.4863480719025 534.3881656001224 316.33888231852893
116.86057467964086 471.5695889675799 279.1525080685247
125.64733268282141 489.64068635502366 289.8499581952383
128.28681189337718 496.5249139311927 293.9251772911291
128.2787665378415 480.1748734377912 284.24653193838833
127.73271013220106 475.01170275566443 281.19011761647016
126.15994158874456 454.35902002715727 268.96446032879754
118.29916719090494 423.37999593439656 250.62597439728862
128.44721724168838 445.75373555694597 263.87043645893397
126.23194785659337 435.42739419269236 257.75760781509763
133.88367957530824 448.33532089800934 265.39864361989305
135.69854968197376 451.7774346860939 267.43625316783846
117.81983666560747 381.2141020303611 225.66525743495703
111.79585874920832 359.70089085483283 212.93019776029806
119.59042672737262 374.32987445419207 221.59003833906615
103.32439294872565 313.23235471569177 185.42246886303468
100.44160506379825 302.90601335143816 179.30964021919837
106.56876351973901 313.23235471569177 185.42246886303468
118.87877782301774 347.653492596537 205.79856434248902
107.99394592133831 308.06918403356497 182.3660545411165
110.64531020369155 314.0928831627129 185.93187125002103
109.82224214140976 302.90601335143816 179.30964021919837
112.28879999396179 301.1849564573959 178.29083544522564
116.91851948586412 298.60337111633254 176.76262828426655
89.67633361251198 228.04003846059976 134.99163255138512
93.68209143707203 233.20320914272656 138.0480468733033
99.6432236080694 229.76109535464204 136.01043732535786
100.8009356406124 228.04003846059976 134.99163255138512
466.22255834410186 845.899463421772 500.74254640759085
-75.56013583675993 167.97616110548336 99.04044275075056
-45.124291734410626 136.96517751677874 80.75605331984276
-59.62937028619548 192.09581500780916 113.2616345303455
-39.79695635738343 167.97616110548336 99.04044275075056
-33.924038671746615 149.886420678739 88.37454891605434
-32.69201454590646 145.57933962475224 85.83505038398381
-28.75127194380131 134.3809288843867 79.23235420060044
-84.66543470812195 465.1647538305693 274.26584146361694
-77.24525783527405 446.21359719302757 263.0920479225066
-68.4808552930201 451.38209445781166 266.13944616099127
-75.78594737460864 544.4150452239255 320.9926144537146
-71.81433422969383 551.3063749103044 325.0558121050275
-68.8355935826213 535.800883115952 315.9136173895736
-66.61223046496613 557.3362883858858 328.6111100499262
-60.745938415793034 515.988310267613 304.23192414204914
-56.40273448059848 518.572558900005 305.7556232612915
-57.407928858903325 536.6622993267493 316.42151709598767
-46.00936211523976 469.471834884556 276.80533999568746
-48.979054897519916 509.09698058123416 300.16872649073633
-46.43783703842668 532.3552182727626 313.88201856391714
-45.187344502505525 528.9095534295732 311.8504197382607
-39.579999045129796 517.7111426892077 305.2477235548774
-35.691377969287 478.08599699252954 281.8843370598285
-29.244606368026613 445.3521809822302 262.5841482160925
-28.223712043919846 441.90651613904083 260.55254939043607
-25.66768316262934 467.74900246296136 275.7895405828592
-25.14622491826471 473.7789159385428 279.344838527758
-20.427969718851724 463.44192140897457 273.2500420507887
-9.751236060424857 571.1189477586435 336.7375053525519
9.229427778929635 217.9383013317297 128.49862572276868
14.741309340502896 277.37601987674685 163.54370546534196
30.714125933256177 359.21055990249516 211.79417757468195
29.178406585537104 334.229489789372 197.0650860886729
39.45251069527256 402.2813704423627 237.18916289538723
44.90725740887382 412.61836497193093 243.2839593723565
49.24132873990637 411.7569487611336 242.7760596659424
52.817210782247784 410.8955325503362 242.26815995952828
55.57346940229807 426.4010243446885 251.4103546749822
53.74842255024321 385.91446243721305 227.53906847351922
60.028019983854435 425.53960813389114 250.90245496856807
60.47028676675314 403.14278665316004 237.69706260180135
69.81956929023067 459.9962565657852 271.2184432251323
73.23194354833618 455.68917551179845 268.6789446930618
76.28418130660246 469.471834884556 276.80533999568746
78.99132824013334 460.85767277658255 271.7263429315464
82.19904215582127 474.64033214934017 279.8527382341721
86.31667955750733 469.471834884556 276.80533999568746
96.1333961465963 498.759986051666 294.07393001376704
91.82461685150761 472.0560835169481 278.3290391149298
89.88036844311387 441.90651613904083 260.55254939043607
98.97025131386862 482.3930780465163 284.42383559189904
106.37693914062118 497.03715363007126 293.05813060093885
110.41670017760322 511.68122921362624 301.6924256099786
110.8771358898248 493.5914887868819 291.0265317752824
109.40885854036652 483.25449425731364 284.93173529831313
106.98696663477286 454.8277593010011 268.17104498664764
121.0584640218406 510.8198130028289 301.1845259035645
129.36901557477043 526.3253047971812 310.32672061901843
117.28707312737677 473.7789159385428 279.344838527758
126.08897532845523 491.86865636528717 290.0107323624542
116.94776959430916 453.1049268794064 267.15524557381946
119.08315603333673 446.21359719302757 263.0920479225066
120.09651550473252 447.0750134038249 263.5999476289207
125.68206302212053 453.1049268794064 267.15524557381946
125.03164012046864 447.9364296146223 264.10784733533484
125.73300735123134 434.15377024186466 255.98145203270914
136.45342390496864 457.4120079333931 269.69474410589
125.35961256334718 417.786862236715 246.33135761084114
134.04333561956244 434.15377024186466 255.98145203270914
114.47040082454822 368.68613822126605 217.38107434523712
100.89031183128728 314.4169169410329 185.3833928411485
97.30280490555455 293.74292788189655 173.19379988720996
97.49285234086014 286.85159819551774 169.1306022358971
121.23281302743393 354.9034788485084 209.25467904261143
112.41308783993148 303.2185062006674 178.7806966577651
114.21375085100114 306.6641710438568 180.81229548342154
115.51316049159985 303.2185062006674 178.7806966577651
116.24463752917326 297.1885927250859 175.22539871286637
116.41003306680801 296.32717651428857 174.71749900645227
119.2631791357559 297.1885927250859 175.22539871286637
114.82878088375423 279.09885229834157 164.55950487817015
106.75097444892226 253.25636597442104 149.322513685747
102.6287883603711 236.8894579692714 139.672419263879
102.32245919745182 231.72096070448728 136.62502102539435
460.1502151984822 838.1579731058221 494.18641434092456
481.3584579242158 871.7532053269188 513.9945028910747
475.5837008693465 858.8319621649584 506.3760072948631
-202.1675332682393 391.484813149883 229.90354732583233
-76.95229363349131 168.1487633573286 98.74711834479584
-44.79019245500621 135.38131203641328 79.50409015452793
-63.570176740114846 212.12613223539915 124.57328775805013
-60.57755102325314 217.29994033870156 127.61166063019769
-59.98608794052877 225.0606524936552 132.16921993841905
-39.90588805421802 169.87336605842938 99.75990930217836
-93.28876602098622 513.0693035774898 301.3053098213001
-83.80663108769114 484.6133590093265 284.5942590244885
-85.89614809662294 501.85938602033457 294.7221685983137
-75.41227082095715 464.7804279466672 272.9471630145895
-85.93095988289902 535.4891386918002 314.47159226727285
-70.96393974066777 468.22963334886884 274.9727449293545
-71.03272020923727 474.26574280272166 278.5175132801934
-74.46688816397463 535.4891386918002 314.47159226727285
-66.87709875140239 513.9316049280402 301.81170529999133
-65.18354440540827 507.8954954741874 298.2669369491525
-65.68563065942564 550.1482616511571 323.0803154050243
-62.36853443357716 530.3153305884979 311.4332193951253
-54.15412048137196 498.4101806181329 292.6965866835487
-59.25088002612334 554.4597684039092 325.6122927984806
-50.145983663215446 512.2070022269394 300.79891434260884
-51.382426457635106 534.6268373412498 313.96519678858164
-47.395195211097004 555.3220697544596 326.1186882771719
-38.392347112908716 514.7939062785906 302.3181007786826
-31.790075007409975 484.6133590093265 284.5942590244885
-31.359680048799827 491.5117698137297 288.6454228540186
-26.140384510007415 476.8526468543729 280.03669971626715
-17.84599585104147 405.2816347586894 238.00587498489253
-18.027837554458692 426.8391685224495 250.66576195217402
-14.218823651627698 427.7014698729999 251.1721574308653
14.695528876712514 276.79873352667937 162.55294865989467
14.388376314971921 262.1396105673225 153.94422552214326
27.034888597087903 362.16656723116927 212.68610105032948
27.68509410935383 362.16656723116927 212.68610105032948
44.15724058367342 406.1439361092398 238.51227046358377
41.197655867761114 350.09434832346363 205.59656434865184
47.69609875852856 399.2455253048366 234.4611066340537
56.98772480215519 409.59314151144144 240.53785237834882
59.05590629990538 419.07845636749585 246.1082026439527
64.99263727281374 433.7375793268527 254.7169257817041
70.2118140615241 463.05582524556644 271.934372057207
72.40133549296752 450.9836063378608 264.8448353555293
71.94508108549297 443.22289418290717 260.287276047308
85.92858127359901 496.68557791703216 291.6837957261661
89.24606593109395 490.64946846317935 288.1390273753273
88.05885107151207 479.43955090602407 281.5558861523409
95.46926214903777 495.82327656648175 291.1774002474749
96.68394876518228 497.5478792675825 292.1901912048574
93.38447637461928 459.6066198433648 269.90879014244194
102.8583683297706 501.85938602033457 294.7221685983137
109.51109505984225 512.2070022269394 300.79891434260884
103.72477895471818 481.1641536071249 282.56867710972347
105.84606166096714 471.67883875107043 276.99832684411956
102.77801862882916 454.4328117400624 266.87041727029435
111.03950324972638 472.54114010162084 277.50472232281084
112.48434009449271 475.12804415327207 279.0239087588846
125.13435058050626 509.6200981752882 299.2797279065351
116.00757778416903 469.09193469941926 275.4791404080458
123.88076210028613 483.7510576587761 284.08786354579723
115.61376461794823 448.3967022862096 263.32564891945555
118.16359498288627 443.22289418290717 260.287276047308
125.2041844554965 451.84590768841116 265.3512308342206
122.86763096453744 440.63599013125594 258.7680896112342
133.40656925874197 463.91812659611685 272.44076753589826
126.23194785659337 436.32448337850394 256.2361122177779
126.431421019293 424.2522644707983 249.14657551610026
114.76220201675496 382.86179964437895 224.83959253891973
129.52203263239466 419.94075771804626 246.61459812264394
117.41239710742212 378.55029289162695 222.30761514546344
115.93744602696881 341.4713348179596 200.53260956173924
103.5775489943125 303.53007539374187 178.25120849932375
107.00765616959758 304.3923767442923 178.75760397801503
118.87009731783273 328.53681455970354 192.93667738137032
115.92599683492934 313.01539024979627 183.82155876492763
115.90769655082784 296.63166458933864 174.20004466979367
113.76555143112688 276.79873352667937 162.55294865989467
108.56646721165903 257.8281038145705 151.41224812868694
101.48934062799847 235.40826870026004 138.24596568271417
105.98754870671053 244.89358355631447 143.81631594831802
104.60474453271097 237.13287140136083 139.2587566400967
95.25802801784788 210.40152953429833 123.56049680066761
475.5837008693465 859.7144464987518 504.8762922551869
-48.3758386214268 151.9203599907832 88.86058867839463
-60.43155912412636 195.07955316998297 114.1050740983931
-64.45643364853775 224.42780453183883 131.27132418399208
-65.12673592870561 252.91287203011066 147.93268456119105
-60.33290825250666 244.2810333942707 142.88378747719136
-51.860251165811526 211.48004657807888 123.69797855799253
-39.50075213488585 168.3208533988791 98.45349313799404
-89.1287188087504 467.8456540625255 273.65022195278345
-89.36906996968428 492.0148022428774 287.7871337879826
-83.53474196338244 488.5620667885414 285.7675749543827
-76.11182806419423 469.5720217896935 274.6600013695834
-74.5841986745291 465.25610247177354 272.1355528275836
-84.0328052546029 555.0272242845091 324.6440825011804
-79.42749623396531 530.8580761041572 310.5071706659812
-69.83635933164395 496.3307215607974 290.31158232998246
-72.90800000595262 524.8157890590693 306.97294270718146
-65.75499977906341 505.8257440602213 295.8653691223821
-69.49960252393275 542.0794663307491 317.07073687518084
-59.096476486693284 495.4675376972134 289.8066926215825
-66.22219997581445 563.659062920349 329.69297958518007
-56.215349980662936 517.9103181503973 302.9338250399817
-58.32940444251333 546.3953856486692 319.5951854171807
-54.198184363273256 554.1640404209251 324.1391927927804
-44.634425891303316 512.7312149688933 299.9044867895819
-35.694441734543005 467.8456540625255 273.65022195278345
-37.041862541097856 497.1939054243814 290.8164720383824
-25.920094725564756 356.49493566019015 208.5194495691874
-29.81026606566736 454.8978961087656 266.0768763267839
-29.269034712213173 459.2138154266856 268.60132486878376
-22.311503596245025 407.42278361164585 238.3079423647856
-25.05478410038011 473.0247572440295 276.67956020318326
-20.389999514913338 463.52973474460555 271.1257734107836
-19.15685364372782 454.0347122451816 265.57198661838396
-13.100811308052133 394.4750256578859 230.73459673878605
-13.140573344630365 443.6765058821737 259.5133101175843
-10.0872261070071 449.71879292726163 263.0475380763841
21.563542095296302 289.16659430063845 169.1380523139898
27.355509655671046 358.2213033873581 209.52922898598734
28.87275147682595 338.3680745249262 197.91676569278803
30.682448162111182 352.17901634227013 205.99500102718756
39.70595294813298 405.69641588447786 237.29816294798567
41.95437619665586 392.7486579307179 229.7248173219861
41.197655867761114 350.45264861510213 204.9852216103876
42.44231682184398 355.6317517966061 208.01455986078744
51.267020109393556 399.6541288393899 233.76393498918588
55.30808659746009 397.9277611122219 232.75415557238594
55.65350840608367 395.33820952146993 231.23948644718604
60.21186673783539 402.24368043014186 235.2786041143858
70.47331057571972 465.25610247177354 272.1355528275836
74.04464570861047 456.6242638359336 267.0866557435839
70.87072440236263 414.32825452031784 242.34706003198536
81.75149746168795 473.0247572440295 276.67956020318326
85.79542717804638 472.16157338044553 276.1746704947833
89.8010225855168 489.42525065212544 286.2724646627827
84.17898419054288 437.6342188370857 255.97908215878454
92.82999586812996 478.2038604255335 279.7088984535831
86.20105511503318 424.68646088332576 248.405736532785
92.60787801511992 452.3083445180136 264.562207201584
92.36541856057401 432.4551156555817 252.9497439083847
103.72477895471818 481.6565958798695 281.728457287183
111.65114730964906 498.05708928796537 291.3213617467824
114.2844761223793 505.8257440602213 295.8653691223821
112.05263740346476 477.34067656194946 279.2040087451831
112.07604847890471 473.8879411076135 277.1844499115833
114.97115459427225 468.70883792610954 274.1551116611834
118.77981769445248 480.79341201628546 281.223567578783
121.89337019493395 476.4774926983655 278.69911903678315
115.61376461794823 448.85560906367766 262.54264836798416
123.10471338828074 459.2138154266856 268.60132486878376
124.96524517218448 451.4451606544296 264.05731749318403
132.00455851180246 473.8879411076135 277.1844499115833
121.50412441781332 422.96009315615777 247.39595711598506
132.96764467898075 460.07699929026955 269.1062145771837
129.0011653489534 433.31829951916575 253.4546336167847
126.13503284724418 421.23372542898977 246.3861776991851
117.55387766636231 381.527267704126 223.16125111278652
118.4822139375581 382.39045156771 223.66614082118647
119.59042672737262 375.484980659038 219.62702315398673
119.50431162476235 363.4004065688621 212.55856723638715
113.28215116570428 342.6839938428462 200.44121423478788
110.93390900811309 325.42031657116627 190.3434200667885
109.80390032225459 314.1989263445744 183.7798538575889
107.00765616959758 304.7039038451504 178.22606706518923
116.1347297213027 322.8307649804143 188.8287509415886
118.87009731783273 328.87305202550226 192.36297890038838
123.90988091446992 334.9153390705902 195.89720685918817
125.91769787437826 329.7362358890863 192.86786860878834
116.74843432572315 297.79843293647843 174.18694939798948
113.76555143112688 277.08202021046253 162.0695963963902
105.69044759844586 256.3656074844466 149.95224339479094
101.48934062799847 235.64919475843075 137.83489039319167
-75.94762371284587 169.35649445312941 98.66295042490438
-45.124291734410626 137.3861358063652 80.03780162020304
-61.233747962057244 197.87059811105428 115.27456962909746
-68.5966610626675 230.70502050502836 134.40310083392586
-63.464796207791025 221.20031928572007 128.86589443252817
-62.23082332583275 232.43314799944804 135.40986563418
-67.5705358410554 254.03474167969415 147.99442563735656
-58.013918352874285 225.5206380217693 131.3828064331635
-39.50075213488585 168.4924307059196 98.15956802477731
-32.75424423478984 145.1627095312538 84.5682432213466
-33.46579003811726 149.483028267303 87.08515522198192
-29.360765584928625 136.52207205915536 79.53441922007597
-96.9336216152619 514.1179295898572 299.5125280756026
-87.17404018095519 480.4194434486733 279.8806144706471
-77.84174631276652 451.0412760435386 262.765612866327
-75.83200516689939 468.32255098773544 272.83326086886825
-83.99370796927488 524.4866945563754 305.5531168771273
-79.42749623396531 531.3992045340541 309.58017607814384
-78.94544967924969 561.6414356863986 327.19856008259103
-72.66817105856461 523.6226308091655 305.04973447700024
-66.87709875140239 514.981993337067 300.01591047572964
-70.71695224967043 552.1367344670904 321.66135368119336
-66.12078772470294 563.3695631808183 328.20532488284516
-51.24966073237105 472.64286972378466 275.3501728695035
-50.06156281529758 512.3898020954375 298.50576327534844
-49.227679541669765 513.2538658426473 299.0091456754755
-43.65757818661149 502.0210371289194 292.4651744738237
-35.95786934882008 471.77880597657486 274.84679046937646
-32.025776988657526 430.30374611050235 250.68443526327744
-25.77029395013701 363.77083757534433 211.9239904534936
-28.282984882037344 432.031873604922 251.69120006353157
-31.359680048799827 492.5163359096111 286.927968072426
-20.63859508003161 333.5286064229998 194.30560644904637
-19.66437605092782 359.4505188392951 209.40707845285826
-21.168549340284656 400.0615149581578 233.06605125883024
-18.719815157559125 444.12876606585985 258.73855366531046
-13.449626823647755 428.57561861608264 249.67767046302333
-10.029142271458115 447.5850210546992 260.7520832658187
16.412948737553297 257.4909966685335 150.00795523786482
29.756611215912457 349.08175387277697 203.36648965133352
31.359266871569517 360.31458258650497 209.91046085298532
40.20243521261968 376.731793783492 219.47472645539952
39.06674263322175 332.66454267578996 193.8022240489193
42.40878769308365 330.93641518137025 192.7954592486652
58.78733716432851 423.39123613282356 246.65737606226094
56.01805103756457 398.3333874637381 232.0592864585761
59.436606651082144 397.46932371652827 231.55590405844904
64.32814249212264 425.1193636272433 247.66414086251507
68.10986054022948 425.1193636272433 247.66414086251507
73.48476180911247 453.63346728516814 264.27576006670813
82.09192243273671 480.4194434486733 279.8806144706471
75.93341643795468 439.80844732981063 256.22164166467513
79.5215385361417 438.0803198353909 255.214876864421
82.51557807240609 450.1772122963287 262.2622304661999
85.62477958233647 441.5365748242303 257.22840646492926
93.38447637461928 460.54597726284686 268.30281926772466
97.90985576407716 478.6913159542536 278.873849670393
101.0304378666558 473.5069334709945 275.8535552696306
101.86591194836122 473.5069334709945 275.8535552696306
101.58899885193372 453.63346728516814 264.27576006670813
111.55413027645214 494.2444634040308 287.9347328726801
98.88189340486582 421.66310863840386 245.6506112620068
116.36311044257866 492.5163359096111 286.927968072426
114.97115459427225 469.1866147349453 273.33664326899526
118.35331924671657 479.55537970146344 279.37723207052005
114.82708786479286 449.31314854911886 261.75884806607286
112.94575466522635 438.9443835826008 255.71825926454807
117.47392419504841 441.5365748242303 257.22840646492926
118.47671664436041 442.40063857144014 257.73178886505633
116.13515803497374 417.34278990235464 243.1336992613715
118.03257800587579 411.29434367188577 239.61002246048207
125.48353709855031 434.62406484655156 253.20134726391277
126.94536988522508 426.8474911216629 248.6709056627692
114.76220201675496 383.64430376117076 223.50178565641605
133.77737662031728 434.62406484655156 253.20134726391277
119.81948497522805 387.1005587500101 225.51531525692428
118.21582412131086 371.5474113002329 216.45443205463715
118.5806678784171 370.6833475530231 215.9510496545101
111.5562813979373 339.5770526534687 197.82928324993583
119.74347329553092 353.4020726088262 205.88340165196882
120.6443042263299 354.26613635603604 206.3867840520959
108.89892312179646 311.9270127427537 181.7210464458698
114.89264705048663 319.7035864676423 186.25148804701337
120.74206735433403 334.3926701702096 194.80898884917343
114.32922001902121 309.33482150112417 180.2108992454886
128.33005713595634 345.6254988839376 201.35296005082526
116.1694852671203 305.8785665122848 178.19736964498034
113.72148106455629 298.10199278739617 173.66692804383678
116.07163180789287 296.3738652929765 172.66016324358267
119.2631791357559 298.10199278739617 173.66692804383678
113.169503198237 281.68478159040916 164.10266244142258
115.53760051883913 281.68478159040916 164.10266244142258
107.47717155401696 255.76286917411383 149.0011904376107
110.85730312477453 246.25816795480554 143.463984036213
484.646981026335 877.8887671652016 511.43651852909613
-156.12178665654102 291.4851165779637 169.13138920239166
-70.54739126037136 236.12889265811305 137.01148146069116
-65.84477729532647 228.34442366938404 132.49461943451453
-61.7794865594288 222.28983667815038 128.98150452526605
-64.49784473457444 233.53406966187003 135.50586078529895
-60.67558320421301 228.34442366938404 132.49461943451453
-40.00104331306232 169.5284357545427 98.36721745895777
-39.703320094551934 169.5284357545427 98.36721745895777
-29.360765584928625 136.66067780213135 79.2960222373231
-84.19507118196572 464.4733163274971 269.5061008952057
-72.46565071381762 424.6860303851044 246.41991720585847
-75.41227082095715 466.2031983249924 270.50984801213383
-82.74833173908794 517.2347172511047 300.120387961514
-78.02112711819274 516.3697762523572 299.6185144030499
-65.34254142682512 465.33825732624473 270.00797445366976
-68.67245710714472 529.3438912335721 307.14661778001096
-67.28623938622789 525.8841272385814 305.1391235461547
-58.37578774905069 490.4215462899271 284.56230764912783
-65.5123142180339 558.7518851909928 324.2103187677894
-49.93796923282224 461.01355233250644 267.4986066613494
-57.68437153398633 541.4530652160395 314.172847598508
-50.145983663215446 513.7749532561141 298.1128937276577
-48.64755537198679 507.72036626488045 294.5997788184092
-44.784710153563594 515.5048352536095 299.11664084458585
-40.330072943604286 473.98766731372143 275.02671003831045
-35.23134435969089 422.95614838760906 245.41617008893033
-34.98398128881465 470.52790331873075 273.0192158044542
-30.43249173307218 465.33825732624473 270.00797445366976
-23.107132667536717 363.27521947402005 210.78689455490948
-24.54174907185106 397.00791842517907 230.35996333500825
-23.986399932364623 399.6027414214221 231.86558401040045
-26.140384510007415 478.3123723074598 277.53607783063086
-21.122828931342355 399.6027414214221 231.86558401040045
-22.880356868118238 448.03943735129144 259.97050328438837
-21.096020939959377 523.2893042423384 303.63350287076247
-12.928809409040507 390.08839043519777 226.34497486729566
-12.60902514716977 402.1975644176651 233.37120468579266
-9.971058435909129 445.44461435504843 258.46488260899616
-7.206795881761961 423.82108938635673 245.9180436473944
16.468025746739716 258.61735862555236 150.060193980757
21.752573943063723 285.4305295867301 165.61827429314317
28.695438109249526 299.26958556669274 173.64825122856828
38.53211439467044 355.4907504852911 206.27003252873286
41.60354410291147 354.6258094865434 205.7681589702688
39.76391818745577 333.8672255165994 193.72319356713112
42.29805978787978 330.40746152160875 191.7156993332748
51.86857144214487 399.6027414214221 231.86558401040045
57.59773577398179 409.98203340639407 237.8880667119693
67.20460414827446 444.57967335630076 257.9630090505321
