# .PCD v.7 - Point Cloud Data file format
VERSION .7
FIELDS x y z
SIZE 4 4 4
TYPE F F F
WIDTH 859
HEIGHT 1
VIEWPOINT 0 0 0 1 0 0 0
POINTS 859
DATA ascii
-15.185062542828112 515.0078420178836 219.9248113789863
-10.418933576193858 537.999263536539 229.74288331554817
-6.080852666095699 343.9516659190865 146.87835617096584
-6.0890071327539825 380.73794034893535 162.58727126946488
-5.740774778529784 525.124067486092 224.24476303107352
-5.441638040856329 588.5803908775812 251.34264157598435
-2.7596272450647397 365.1037737162496 155.9109823526028
-0.4757201842222938 586.7410771560887 250.5571958210594
0.37790176890259686 431.3190676899775 184.18702952990103
1.4850123026785538 579.383822270119 247.4154128013596
3.4079446690005386 366.02343057699585 156.30370523006525
6.392054968042216 581.2231359916115 248.20085855628454
4.4211572881741725 348.54995022281764 148.84197055827823
11.15103668327737 573.8658811056417 245.05907553658474
8.964356531413557 366.02343057699585 156.30370523006525
16.251414695229712 549.9548027262399 234.84828072256036
17.207518647878775 550.8744595869862 235.24100360002285
20.42877294940947 515.0078420178836 219.9248113789863
24.355206736483044 489.2574499169894 208.92857081003697
26.126262256133224 507.6505871319138 216.7830283592865
23.628036940974376 394.53279326012864 168.478114431402
30.97441718773192 503.0523028281827 214.81941397197411
26.585900476098107 420.28318536102284 179.47435500035132
35.402830305710346 505.81127341042134 215.99758260436155
35.92470545142342 501.21298910669026 214.03396821704916
35.89129511770557 489.2574499169894 208.92857081003697
37.68089476739176 502.1326459674365 214.42669109451163
39.8473432371501 497.5343616637054 212.46307670719926
52.29358484020067 569.2675968019106 243.09546114927235
54.771207606183694 546.276175283255 233.27738921271046
45.1207154562322 402.80970500684464 172.01262032856428
48.94173410011221 406.48833244982956 173.58351183841418
76.4556215413434 626.2863221681763 267.44427955194584
71.58717868701393 578.4641654093728 247.0226899238971
65.63544771890993 523.2847537645996 223.45931727614857
76.18358999867063 583.9821065738502 249.37902718867196
80.07786471530379 606.0538712317594 258.80437624777136
90.05938007783534 641.0008319401157 273.72784559134544
91.22845141465697 606.0538712317594 258.80437624777136
94.78959388816001 590.4197045990736 252.1280873309093
83.09413154408793 512.2488714356449 218.74664274659887
87.67759377061778 514.0881851571373 219.53208850152382
79.50637273003427 461.66774409460277 197.14688448616272
91.30910097354833 525.124067486092 224.24476303107352
97.79373114049261 541.677890979524 231.3137748253981
72.18462338901153 378.8986266274429 161.80182551453993
72.10689738581857 375.219999184458 160.23093400469003
179.605916260297 918.7372038854744 392.3301545850131
74.85101783551507 373.3806854629656 159.44548824976508
73.79702015237118 365.1037737162496 155.9109823526028
207.27639011728039 1017.1404879853201 434.35150247349793
215.883940120656 958.282448897562 409.2172383158995
83.61427888539666 330.1568130078932 140.9875130090287
63.47760190731484 242.78941123700224 103.67883965009354
65.71141422596027 243.70906809774849 104.07156252755601
56.46876841599116 206.92279366789964 88.36264742905699
66.04242927227297 236.3518132117787 100.92977950785621
103.00737971422299 352.2285776658025 150.41286206812813
80.61573515779693 261.18254845192666 111.53329719934305
255.8541695925726 820.3339197856288 350.30880669652817
57.25380453357952 129.67161736521712 55.37392572220905
-202.7836514459527 357.0922654779346 151.75346432894472
-100.0014714692914 246.65135862908883 104.8194031962814
-105.934504735745 262.29715376600865 111.46839519007537
-117.77109415711665 304.63283472473285 129.45978529092963
-119.05164209736544 315.6769254096174 134.15319140419598
-98.11995932908994 266.89885821804387 113.423981070603
-125.91629195081809 393.9059010942165 167.3981513731658
-132.30665759505465 415.99408246398565 176.78496359969847
-127.23838111422148 410.4720371215434 174.4382605430653
-116.64203712479727 378.2601059572967 160.74915937937183
-118.19096935916775 395.7465828750306 168.18038572537688
-136.40723667456396 472.13487677881557 200.64311134213565
-108.534448092879 386.54317397096014 164.26921396432158
-124.34750544693284 445.4449909570112 189.30071323507536
-118.22130468933615 436.2415820529407 185.3895414740201
-119.9881303303549 445.4449909570112 189.30071323507536
-112.50116618604154 430.7195367104984 183.04283841738692
-111.318502393747 428.87885492968434 182.26060406517587
-105.02897319675863 417.83476424479977 177.56719795190952
-89.79932189487054 371.8177197244474 158.01133914663316
-94.92795612881147 395.7465828750306 168.18038572537688
-77.81452831153686 335.9244249985725 142.75776927851757
-73.06313013304239 329.48203876572313 140.01994904577887
-70.69621792346237 321.1989707520597 136.49989446082913
-69.7977347384212 329.48203876572313 140.01994904577887
-73.95939685317464 366.2956743820051 155.66463609
-80.21696343308737 421.51612780642796 179.13166665633165
-71.02165416049063 390.22453753258833 165.8336826687437
-88.13230854756752 488.70101280614244 207.68322051203515
-68.39418351500028 397.5872646558447 168.96262007758793
-63.07865649482804 389.3041966421813 165.44256549263818
-89.88102094646626 560.4876022578921 238.1903602482663
-91.22226451811514 600.0622605453952 255.008398820804
-85.23926425108473 607.4249876686516 258.1373362296482
-70.80799563538856 536.558739107309 228.02131366952258
-77.34483553263065 593.6198743125459 252.2705785880653
-75.40505094117853 618.4690783535362 262.83074234291456
-68.6142572688508 570.6113520523697 242.4926491854271
-60.74376502987638 543.0011253401583 230.75913390226128
-65.00525296247636 589.9385107509178 250.7061098836432
-54.06042823140419 531.0366937648666 225.6746106128894
-51.326190007077294 512.6298759567256 217.85226709077887
-49.13293348820099 535.6383982169019 227.63019649341706
-32.90132790916312 365.37533349159804 155.27351891389446
-45.31637686324759 522.7536257512032 222.15455602793966
-22.61778147017222 277.0226080125214 117.7262700077638
-37.68065209329451 471.21453588840853 200.25199416603013
-27.594284028142354 352.49056102589935 149.79787844841707
-32.00645513466402 447.2856727378253 190.0829475872864
-31.70423304298827 453.7280589706746 192.8207678200251
-25.341809252628796 381.02112862851783 161.92251090768843
-28.62238070062179 465.6924905459662 197.90529110939696
-22.722013789744437 380.1007877381108 161.5313937315829
-29.942003224916327 515.3908986279469 219.02561861909547
-17.96384064198736 318.43794808083857 135.32654293251255
-20.798859284635192 404.9499917791011 172.09155748643215
-18.516765621631286 372.7380606148544 158.4024563227387
-14.884319943847354 360.77362903956276 153.3179330333668
-14.495109791261735 366.2956743820051 155.66463609
-13.502149072412593 433.48055938171956 184.2161899457035
-13.205581175638018 448.2060136282323 190.47406476339194
-16.00388893723465 576.133397394812 244.83935224206027
-11.210180260954147 532.8773755456807 226.4568449651005
-10.062730718888085 519.992603079982 220.9812044996231
-6.080852666095699 344.20749301223594 146.27782386346732
-5.941852704222596 543.9214662305653 231.1502510783668
-5.526663635244709 598.2215787645812 254.22616446859294
-2.8708464791227644 380.1007877381108 161.5313937315829
-3.3532932425787023 571.5316929427768 242.88376636153265
-0.4511139677970027 556.806238696264 236.6258915438442
0.3206927591113722 366.2956743820051 155.66463609
4.024457272437822 432.5602184913125 183.82507276959797
6.442625023169133 586.2571471892895 249.14164117922107
4.409491965514082 347.88885657386413 147.84229256788944
11.419090449702306 588.0978289701036 249.92387553143215
12.429686406271427 589.0181698605106 250.31499270753767
8.829410787855645 387.4635148613672 164.66033114042713
17.419994681675995 589.9385107509178 250.7061098836432
16.719158352363017 535.6383982169019 227.63019649341706
11.617387882975223 335.9244249985725 142.75776927851757
19.370854350243622 488.70101280614244 207.68322051203515
21.601198082634713 522.7536257512032 222.15455602793966
19.39445156615885 450.96703629945347 191.6474162917085
24.513869320110295 548.5231706826006 233.10583695889446
25.40815740366182 510.7891941759116 217.07003273856782
26.031601885639986 506.18748972387635 215.11444685804017
23.90342198690648 399.4279464366588 169.74485442979898
28.93588150444426 470.2941949980015 199.8608769899246
24.898830205185973 393.9059010942165 167.3981513731658
30.058102175869873 419.67544602561384 178.3494323041206
37.54286951183355 500.66544438143404 212.76774380140702
39.92099821540731 498.82476260062 211.98550944919594
47.22473978299221 514.4705577375398 218.63450144298992
37.07742423724574 396.6669237654377 168.5715029014824
52.28160726044807 521.8332848607962 221.76343885183414
102.362631946814 901.0137317084999 382.9037154073115
50.159741057354815 416.9144233543927 177.176080775804
76.11881263587493 623.9911236959784 265.1774453995477
81.58242708519059 625.8318054767926 265.95967975175876
78.9842368208611 598.2215787645812 254.22616446859294
86.82912971636348 618.4690783535362 262.83074234291456
86.42459794165256 608.3453285590587 258.52845340575374
93.58184090486814 622.1504419151644 264.39521104733666
78.10380397997096 513.5502168471328 218.2433842668844
64.38565631890899 418.7551051352068 177.95831512801504
73.95300272813469 475.81624034044376 202.20758004655778
82.49740528524349 508.9485123950975 216.28779838635677
73.39841336741554 448.2060136282323 190.47406476339194
96.83031837165275 585.3368062988825 248.75052400311554
80.46262183242742 472.13487677881557 200.64311134213565
74.91337510220362 435.3212411625337 184.99842429791457
81.87436024248116 471.21453588840853 200.25199416603013
74.10192677762937 422.436468696835 179.52278383243717
80.526247203971 446.36533184741825 189.6918304111809
76.4088052632983 419.67544602561384 178.3494323041206
71.93815314601422 356.17192458752754 151.3623471528392
189.0975385427992 928.6239584207113 394.63723069047734
84.05862110657331 343.28715212182885 145.8867066873618
62.98993195585766 252.17340397153112 107.16610625291456
62.47795604292443 248.49204040990293 105.60163754849245
91.99162407512624 354.3312428067135 150.58011280062811
63.47760190731484 242.96999506746064 103.25493449185929
82.26336091384798 312.9159027383963 132.97983987587938
74.1423126549514 275.18192623170734 116.94403565555275
66.16919755921006 235.60726794420427 100.12599708301506
100.92724554179773 355.2515836971205 150.97122997673364
53.49084150679823 184.06817808140957 78.22343522110552
-222.29839887028342 497.3519429369539 210.33555300242747
-106.6779047689783 264.3333474498255 111.78945131795683
-140.86050439054628 357.35658122136687 151.12998993507753
-137.44737688208954 364.7247581537662 154.24607220178015
-167.63165625872028 483.5366111887052 204.49289875236005
-162.06195805122962 480.77354483905543 203.32436790234655
-127.27593808332392 388.67133318406394 164.3733395685637
-135.0363972089381 422.74915149641083 178.78522005206335
-130.55037452963356 410.7758639812619 173.72158636867158
-130.37654746457224 420.907107263311 178.0061994853877
-113.80403135533749 369.3298687365158 156.1936236184693
-116.26693032308829 389.59235530061386 164.76284985190154
-125.9436475551483 433.80141689500977 183.4593434521173
-123.11218436710158 426.43323996261046 180.34326118541466
-108.01761738767482 384.9872447178643 162.81529843521238
-123.31984011266067 442.090615943959 186.96493600215777
-124.20719353436583 458.66901404185745 193.97612110223866
-106.25110139792812 407.09177551506224 172.16354523532027
-107.1110453526415 426.43323996261046 180.34326118541466
-104.34361657088147 418.14404091366123 176.83766863537423
-79.13009553112354 327.8838734917696 138.665660868267
-81.49468040341812 354.5935148717171 149.96145908506404
-80.6143474931613 363.80373603721625 153.8565619184423
-76.81650136016188 362.88271392066633 153.4670516351045
-68.67257493370883 326.9628513752197 138.27615058492918
-76.00350078630258 376.6980456689151 159.30970588517192
-79.14969208615338 412.61790821436176 174.50060693534724
-81.2678406833025 427.3542620791604 180.7327714687525
-69.1791112459496 380.3821341351147 160.86774701852323
-85.64269531176053 475.24741213975597 200.9873062023196
-66.49434508402805 386.82928895096416 163.59431900188804
-88.84376989110908 584.8490440091958 247.3390299195212
-59.0712721229868 416.3019966805614 176.05864806869855
-84.3352114484217 601.4274421070943 254.35021501960213
-74.33017723646279 563.6655353285478 238.38029340275114
-78.66389474326466 604.1905084567439 255.5187458696156
-73.38527279096839 602.3484642236442 254.73972530293995
-73.704992485572 613.4007296222431 259.4138487029939
-66.40631939706824 594.0592651746949 251.23413275289948
-59.22475464912043 537.8769160651501 227.47400546929194
-54.62258173121082 536.9558939486002 227.08449518595413
-54.36705943299031 543.4030487644496 229.8110671693189
-48.37314585694015 527.7456727831011 223.18939235257582
-32.65270326501328 362.88271392066633 153.4670516351045
-32.04351386012184 362.88271392066633 153.4670516351045
-31.11511791666648 359.1986254544667 151.9090105017532
-43.6418490064915 546.1661151140994 230.9795980193324
-35.826155541681544 501.0360314031536 211.89359413577878
-25.586657651204916 384.9872447178643 162.81529843521238
-30.77188755165663 501.0360314031536 211.89359413577878
-22.722013789744437 380.3821341351147 160.86774701852323
-19.462302096195614 335.25205042416894 141.78174313496964
-21.74426197939134 423.6701736129607 179.1747303354012
-18.471045212688985 372.0929350861655 157.36215446848277
-14.677495382325366 471.5633236735563 199.42926506896828
-15.239294909052497 517.614429501052 218.9047792358597
-9.653785157099806 370.2508908530657 156.58313390180712
-10.062730718888085 520.3774958507017 220.0733100858732
-6.113370594791397 346.3043158227679 146.45586653502357
-5.441866278065154 340.7781831234684 144.1188048349966
-6.51492479244711 596.8223315243447 252.40266360291298
-4.897474236770696 530.5087391327509 224.35792320258932
-3.504488429039578 597.7433536408946 252.7921738862508
-0.47497454130031524 586.6910882422956 248.11805048619686
0.32311004121522674 369.3298687365158 156.1936236184693
2.4076719718001174 567.3496237947475 239.93833453610245
6.392054968042216 582.0859776595461 246.1704990695077
4.5378105147750745 358.2776033379168 151.51950021841535
5.141259818832285 358.2776033379168 151.51950021841535
11.526311956272282 594.0592651746949 251.23413275289948
11.749937930928459 557.2183805126983 235.65372141938633
12.365406371221212 505.6411419859031 213.84114555246794
16.686235155302747 565.5075795616476 239.1593139694268
16.316979285467685 523.1405622003515 221.24184093588667
10.718342799088251 326.0418292586698 137.88664030159134
11.490074043161794 332.4889840745192 140.61321228495615
21.15837198331695 534.1928275989504 225.91596433594063
25.04191369333877 503.7990977528033 213.06212498579228
24.375045402008354 474.32639002320605 200.59779591898177
30.292355052531253 506.56216410245304 214.23065583580578
26.387711900334686 429.1963063122602 181.51179203542816
35.20972395858829 503.7990977528033 213.06212498579228
30.980938646181666 432.88039477845984 183.06983316877947
39.33175838934964 491.8258102376544 207.9984913024005
29.1032045067084 356.43555910481695 150.7404796517397
51.36429657971245 559.9814468623481 236.82225226939983
50.71408111683675 506.56216410245304 214.23065583580578
70.13284769556991 608.7956190394935 257.4662972863047
51.4884759198013 428.2752841957103 181.12228175209032
74.21022883822025 608.7956190394935 257.4662972863047
52.94669684179202 422.74915149641083 178.78522005206335
81.22250461275593 623.5319729042922 263.69846181971
83.1157199776446 629.9791277201416 266.4250338030748
84.89097949948037 605.1115305732939 255.90825615295344
89.03956308360877 627.2160613704918 265.25650295306133
86.66010711012939 576.5598449602466 243.83343736948075
78.24377495484546 514.8513631514023 217.73624838584624
83.2731011727761 519.4564737341518 219.68379980253536
68.17597507297698 420.907107263311 178.0061994853877
70.83625109380966 432.88039477845984 183.06983316877947
80.3057746163798 471.5633236735563 199.42926506896828
79.1896142729425 460.5110582749573 194.75514166891432
90.50954667430534 521.2985179672517 220.46282036921102
99.62009963377855 552.6132699299487 233.7061700026972
80.24407163147399 421.8281293798609 178.39570976872554
81.12025955904588 422.74915149641083 178.78522005206335
71.90122402918935 359.1986254544667 151.9090105017532
186.8486084511108 918.2590502002648 388.3417524878152
204.9975637441176 960.626067561561 406.2592255213553
214.91918669843753 962.4681117946608 407.038246088031
203.16739178591692 871.2869222562192 368.47672803758593
59.40093583774861 247.75494935192702 104.77826621787591
76.62179940009364 313.14751962697096 132.43349633486176
75.89914660029339 302.09525422837197 127.7593729348078
73.83210698236975 291.96401094632296 123.47475981809168
73.372618622981 288.2799224801233 121.91671868474037
83.86768844251769 323.27876290902003 136.71810945157787
63.71804736908498 244.07086088572737 103.2202250845246
72.40653944898263 268.93845803257506 113.73700273464597
77.80141426203225 285.5168561304735 120.74818783472689
65.0145315404088 233.0185954871284 98.54610168447066
52.925840849787555 183.283401193433 77.5125463842279
-98.13577237471507 242.40724125721715 102.01827966627017
-107.79300481882824 267.29315575890865 112.49163917573517
-105.70141997782586 267.29315575890865 112.49163917573517
-118.70845644852241 308.7696799283945 129.94723835817683
-119.7458207684871 317.98668529939135 133.82626039871943
-114.36050432149102 311.53478153969354 131.11094497033963
-128.016062606798 350.2462040978803 147.40283754061852
-125.56644541443376 351.16790463498 147.79073974467278
-135.50761222750674 380.66232182216993 160.20361027440907
-166.67376108009904 481.1276803660356 202.48495051632332
-164.39126728054796 485.736183051534 204.4244615365946
-164.54566622059713 488.5012846628331 205.5881681487574
-141.8029269165755 444.2596588820482 186.96886235415295
-132.30665759505465 416.6086427690576 175.33179623252516
-138.64989511549695 447.9464610304469 188.52047117037
-131.11586654904218 425.82564814005445 179.21081827306776
-139.84825407928358 482.0493809031353 202.87285272037758
-136.6731377207132 473.7540760692381 199.38173288388924
-132.05024517966945 470.98897445793904 198.21802627172647
-113.04318676993894 405.54823632386143 170.67696978387406
-133.6231451406225 496.79658949673023 209.07928798524574
-114.90503725839287 440.5728567336494 185.41725353793592
-118.24604868005314 456.2417658643441 192.0115910068583
-107.57372805394881 428.59074975135354 180.37452488523056
-78.68554443263409 326.2819901332885 137.31738023520776
-76.23160414168349 360.38491000597685 151.66976178521537
-72.10112055033106 357.61980839467776 150.50605517305257
-82.3187179335176 433.19925243685196 182.31403590550184
-77.88931411468901 428.59074975135354 180.37452488523056
-81.49333991874887 452.55496371594535 190.45998219064128
-79.3182544930906 461.7719690869422 194.33900423118388
-99.32664547942824 620.304461468088 261.05818332851646
-91.36217596676256 601.8704507260943 253.30013924743128
-75.94043542369367 541.9599158146148 228.08649598390443
-72.62981370490971 551.1769211856116 231.96551802444702
-74.58680263766863 573.2977340760041 241.27517092174924
-72.03875402416162 591.7317448179978 249.03321500283442
-72.70897907360481 605.5572528744931 254.85174806364833
-64.14129765019149 574.2194346131038 241.6630731258035
-61.96288542913113 563.1590281679075 237.00824667715239
-50.687507232564414 498.6399905709296 209.85509239335425
-49.94397663166229 499.56169110802927 210.2429945974085
-47.106833138172085 514.3088997016242 216.44942986227665
-32.93812972931306 373.2887175253724 157.100392641975
-32.08568999256989 393.5661293415655 165.6342411311687
-36.723916786238206 459.9285680127428 193.56319982307537
-36.48472457737422 510.6220975532255 214.89782104605962
-32.41162972346063 464.5370706982413 195.50271084334665
-23.346913408983266 342.87259980108286 144.29961990818444
-32.29916873528665 526.2910066839202 221.49215851498204
-18.59574009911288 311.53478153969354 131.11094497033963
-18.690701245998408 331.8121933558866 139.64479345953333
-23.587797234165823 459.9285680127428 193.56319982307537
-18.471045212688985 372.3670169882727 156.71249043792074
-14.822888655888256 375.1321185995718 157.8761970500835
-18.825209250215046 520.760803461322 219.16474529065647
-15.26641109216469 518.9174023871227 218.38894088254796
-10.977844918758207 522.6042045355214 219.94054969876498
-11.772504433955795 609.2440550228918 256.4033568798653
-6.01222997821508 551.1769211856116 231.96551802444702
-4.897474236770696 530.8995093694185 223.43166953525332
-2.7457248408074864 364.0717121543756 153.2213706014324
-2.203129859858471 376.0538191366715 158.26409925413776
3.9302678469126815 423.0605465287554 178.047111660905
6.462853045219899 588.9666432066987 247.86950839067165
4.526145192114984 357.61980839467776 150.50605517305257
11.383349947512315 587.1232421324994 247.09370398256314
8.661631010414208 380.66232182216993 160.20361027440907
8.649027407192978 353.93300624627904 148.95444635683555
16.278590973984276 552.0986217227113 232.35342022850128
11.323898889432222 344.7160008752822 145.07542431629295
24.302435227799048 565.9241297792066 238.17195328931518
21.881507513923953 490.3446857370324 206.36397255686592
24.30942627269266 489.4229851999327 205.97607035281166
24.7536868839813 482.0493809031353 202.87285272037758
25.417492248742402 479.2842792918362 201.7091461082148
26.54711842785466 444.2596588820482 186.96886235415295
31.200921152541657 507.85699594192647 213.73411443389685
31.93798547347453 506.0135948677271 212.9583100257883
30.220112573452486 466.3804717724406 196.27851525145516
35.467199088084364 507.85699594192647 213.73411443389685
35.595120997740636 497.71829003382993 209.4671901893
33.54013710064541 447.9464610304469 188.52047117037
33.95494497657337 424.9039476029548 178.8229160690135
48.35098386616322 537.3514131291164 226.14698496363314
47.22473978299221 515.2306002387239 216.8373320663309
98.19655940246801 934.6043446190806 393.3328349110189
108.42701667910737 955.8034569723734 402.2545856042668
70.42294770966372 586.2015415953997 246.70580177850889
71.62802722962863 588.0449426695991 247.4816061866174
73.88063998012854 560.3939265566084 235.84454006498962
89.67175003445871 639.6601727471814 269.20412961365594
86.55534619875039 610.1657555599915 256.7912590839196
89.56723530391966 596.3402475034962 250.97272602310574
75.86426838197897 499.56169110802927 210.2429945974085
93.46076780561572 583.4364399841006 245.5420951663461
74.88914548497691 462.6936696240419 194.72690643523813
78.73730245590363 462.6936696240419 194.72690643523813
73.012824359653 424.9039476029548 178.8229160690135
90.82936839400254 523.5259050726211 220.32845190281924
101.28043462767485 562.2373276308078 236.62034447309813
73.23585576846315 385.27082450766835 162.14312129468036
82.00392251720542 427.66904921425385 179.9866226811763
75.65588715872813 375.1321185995718 157.8761970500835
221.70610838365135 993.5931789934605 418.1585759704915
197.03035225983095 876.5372107818005 368.89499605560053
204.24121520973256 876.5372107818005 368.89499605560053
62.94075571731646 250.70254609111433 105.50939950275851
86.17627628857036 341.02919872688346 143.52381550007593
64.75254577755639 249.78084555401463 105.12149729870426
93.24367822322534 353.01130570917934 148.5665441527813
71.16670144471922 264.5280541476096 111.3279325635724
77.65645576661639 273.74505951860647 115.206954604115
53.457758848277884 185.2618079570367 77.96834301490611
65.25882663829385 224.89493105232316 94.64813778923926
-203.77665872440465 356.0371938960532 149.1090760571743
-105.70141997782586 267.4890834970348 112.02495351445737
-119.19430979647758 308.9960102465747 129.40813595635592
-118.70455276180462 315.45264329650314 132.11218655842904
-112.66878088478258 307.15125794659514 128.63555007004933
-128.016062606798 350.5029369961146 146.79131839825448
-125.56644541443376 351.4253131461044 147.17761134140778
-162.20770206050275 479.6355979946831 200.87233043971665
-160.5096404453749 476.8684695447138 199.71345161025675
-156.08648148296072 475.02371724473426 198.94086572395014
-162.26174096878736 496.23836869449906 207.82560341647607
-159.74894048900518 500.85024944444797 209.75706813224258
-158.35818973213398 499.0054971444684 208.984482245936
-152.05842406699563 491.6264879445502 205.89413870070956
-137.9270803957457 448.2748088950308 187.73837037250442
-131.8208757309685 439.9734235451228 184.2617338841247
-137.1564970005226 460.2656988448978 192.76017863349733
-139.59804922835494 484.247478744632 202.80379515548316
-124.81461530681085 445.50768044506145 186.5794915430445
-132.56882812111022 475.946093394724 199.32715866710345
-120.21660097101271 444.5853042950717 186.19319859989122
-128.66495793688884 478.71322184469335 200.48603749656334
-117.06852122350905 449.19718504502055 188.12466331565773
-101.2855043239243 391.0874875956647 163.78820789699972
-89.99178540427116 358.80432234602256 150.2679548866342
-92.62219708824941 371.7175884458794 155.6760560907804
-102.02447710333064 423.37065284530684 177.3084609073653
-98.68092183622961 412.30213904542956 172.67294558952565
-74.61667098366549 322.8316524964213 135.20253010365545
-66.48331716704365 314.5302671465134 131.72589361527574
-66.15463638123158 328.36590939636 137.52028776257524
-74.82702826399571 374.48471689584875 156.8349349202403
-80.39210964145656 423.37065284530684 177.3084609073653
-80.99541727158747 450.1195611950103 188.510956258811
-81.69305253180589 475.946093394724 199.32715866710345
-66.63483287213302 392.00986374565446 164.17450084015303
-63.22777861420115 391.0874875956647 163.78820789699972
-95.78453627956749 598.6221213433641 250.70412010649252
-92.06173320999964 606.9235066932721 254.18075659487224
-76.58618742559582 546.9690569439367 229.07171528990764
-75.54472261614355 573.7179652936402 240.2742106413534
-80.82235526975668 621.6815250931085 260.36144368532507
-70.80444515458876 582.0193506435481 243.7508471297331
-73.37298801491627 611.535387443221 256.11222131063874
-68.67134114394499 615.22489204318 257.6573930832519
-60.34028941134701 548.8138092439162 229.84430117621426
-55.84058098079185 549.736185393906 230.23059411936754
-54.36705943299031 544.2019284939674 227.91283646044775
-25.29323048349719 286.8589826468201 120.1371053206767
-23.06863425695306 283.169478046861 118.59193354806348
-38.710982423970535 485.1698548946218 203.19008809863647
-32.53331036321816 455.653818094949 190.82871391773082
-36.72031859542861 526.6767816441617 220.57327054053502
-23.01574946615562 346.81343239615546 145.24614662564127
-30.65875561212848 499.92787329445815 209.37077518908927
-19.751096732489717 331.13303784632933 138.67916659203516
-21.0663379832447 363.41620309597147 152.1994196024007
-20.923201672603774 371.7175884458794 155.6760560907804
-19.75121666307337 398.4664967955829 166.87855144222615
-16.934710956520203 411.37976289543974 172.28665264637237
-14.34943029587217 363.41620309597147 152.1994196024007
-14.560383083794646 403.0783775455318 168.81001615799266
-13.530816055581198 435.36154279517393 182.3302691683582
-15.591805289511006 530.3662862441207 222.11844231314822
-10.405084340981633 375.4070930458385 157.2212278633936
-11.152096425405162 531.2886623941106 222.50473525630153
-10.454553861924436 541.434800043998 226.75395763098783
-6.545086481301032 600.4668736433437 251.4767059927991
-4.9229819150872105 534.0557908440799 223.66361408576142
-2.954260904666283 392.00986374565446 164.17450084015303
-0.42128825091786204 521.142524744223 218.2555128816152
3.4079446690005386 367.10570769593056 153.7445913750139
11.40122019860731 588.4759836934766 246.4548977318062
8.766493371315105 385.55323069572603 161.47045023807993
9.414826708871525 385.55323069572603 161.47045023807993
16.36011981024797 555.2704422938447 232.54835177828735
17.638424790980913 566.338956093722 237.18386709612696
15.593069326357202 475.02371724473426 198.94086572395014
22.435170292655044 567.2613322437118 237.57016003928027
20.726501681401267 502.6950017444275 210.5296540185492
23.576938852046556 475.02371724473426 198.94086572395014
23.002470029856426 448.2748088950308 187.73837037250442
23.266781366156508 439.051047395133 183.8754409409714
30.347432061717672 508.22925864436615 212.84741167746898
24.80218414666651 404.00075369552155 169.19630910114594
35.53156787045839 509.1516347943559 213.2337046206223
32.36519335164936 452.88668964497964 189.66983508827093
40.07411522540809 547.8914330939265 229.45800823306095
37.49038393291941 469.4894603447956 196.62310806503035
47.90058579062 522.9872770442025 219.02809876792182
37.163450743596655 398.4664967955829 166.87855144222615
53.29588888278481 533.1334146940901 223.27732114260812
97.13131073044913 925.1432784397446 387.45182198276115
77.91512679837345 640.129048092904 268.08730254839105
81.94234955762526 629.9829104430165 263.8380801737048
77.76909471592478 590.3207359934562 247.2274836181128
89.67175003445871 640.129048092904 268.08730254839105
84.07112931389199 593.0878644434255 248.3863624475727
84.40249784932347 556.1928184438344 232.93464472144066
91.09841032553696 569.1060845436913 238.34274592558688
69.07106446124365 427.06015744526593 178.8536326799785
102.48649094423526 627.2157819930471 262.67920134424486
73.38398342002614 444.5853042950717 186.19319859989122
80.46262183242742 473.1789649447547 198.16827983764355
95.46678332961181 550.6585615438959 230.61688706252085
84.8431181881014 471.33421264477516 197.39569395133694
77.5817474493577 427.06015744526593 178.8536326799785
104.249611826271 563.5718276437527 236.02498826666707
80.59448242462453 424.2930289952966 177.69475385051857
73.92920727103828 369.8728361458999 154.9034702044738
204.65309905515264 931.599911489673 390.1558725848343
197.03035225983095 877.1797186402763 367.3645889387895
204.24121520973256 877.1797186402763 367.3645889387895
91.49632451982244 367.10570769593056 153.7445913750139
83.61427888539666 331.13303784632933 138.67916659203516
94.70459400538121 372.6399645958692 156.0623490339337
71.44284571029284 275.7904688469428 115.50159000283708
77.66388415175263 297.9274964466974 124.7726206385163
69.10325999264103 255.49819354716774 107.00314525346445
72.72376452939008 261.0324504471064 109.32090291238426
67.59266822299877 239.81779899734155 100.43616521985832
91.98048005813123 315.45264329650314 132.11218655842904
96.46772281950483 321.90927634643157 134.81623716050214
-197.4752141132131 346.1433574358057 144.2559395763934
-119.5893509311008 319.3749377941034 133.10014691581895
-96.68581570566059 264.91504955753663 110.40387908913307
-131.57034504414094 370.14263021802157 154.25768472035665
-157.84057162041228 467.06277030004713 194.6493478017468
-178.2060611521184 529.8300991150733 220.80775817826614
-161.84501186776896 492.9081409885873 205.4204579567842
-155.3249007414972 475.3702108785065 198.11149035158024
-155.04178938804003 486.44679831645226 202.72768041802485
-158.06547588789712 498.44643470756023 207.72855299000648
-147.20853061645354 476.29325983166865 198.4961728571173
-135.94047635712383 442.14044856466916 184.2629201522465
-153.75286060341884 530.7531480682354 221.1924406838032
-139.06624713605643 482.75460250380365 201.18895039587665
-121.97204642818784 435.6791058925341 181.57014261348715
-125.45425371041368 464.2936234405607 193.49530028513567
-117.0132180081147 435.6791058925341 181.57014261348715
-119.95316651033063 460.60142762791213 191.95657026298747
-98.65781435325646 381.2192176559673 158.87387478680125
-91.61117485884672 365.5273854522108 152.33427219267142
-91.47303831544234 367.3734833585351 153.1036372037455
-78.68554443263409 326.75932941940056 136.17760696011536
-92.72032924209493 387.6805603281024 161.5666523255606
-75.77946905045113 330.45152523204916 137.71633698226356
-71.70905772179277 326.75932941940056 136.17760696011536
-68.04304308298603 322.14408465358986 134.2541944324301
-65.96880875094723 327.6823783725627 136.5622894656524
-77.05179460807946 424.60251845458833 176.95395254704255
-85.14477266459913 473.5241129721822 197.34212534050616
-62.7804122560818 388.60360928126454 161.95133483109763
-96.67006357953268 604.5970643212073 251.9670411267671
-90.94244162082032 599.9818195553966 250.04362859908187
-89.66708857345985 598.1357216490723 249.27426358800776
-72.32422421304159 516.9074137708031 215.42220310074745
-78.21672245144123 594.4435258364236 247.73553356585958
-77.34483553263065 595.3665747895858 248.1202160713966
-65.30616019012783 537.2144907403705 223.88521822256254
-71.27029303409665 594.4435258364236 247.73553356585958
-59.405343088540114 532.5992459745597 221.96180569487728
-52.09289098208099 513.2152179581545 213.88347307859925
-55.56497769168332 556.5985187567755 231.96355083884058
-48.457566704858024 529.8300991150733 220.80775817826614
-40.109287872745135 503.06167947337093 209.6519655176917
-26.93110731361826 352.60470010794074 146.94871711515273
-34.706588181003994 486.44679831645226 202.72768041802485
-36.84893617369631 528.9070501619111 220.42307567272908
-32.86482843292739 536.2914417872083 223.50053571702549
-25.022959837965786 431.9869100798855 180.03141259133895
-20.751589149897388 405.2184904381832 168.87561993076451
-22.082957519130645 445.83264437731776 185.80165017439467
-17.580204423472768 427.3716653140748 178.1080000636537
-18.683395283711732 473.5241129721822 197.34212534050616
-14.527064129369485 402.44934357869676 167.72157241415337
-15.709506776395118 505.8308263328574 210.80601303430288
-15.998548036193903 544.5988823656676 226.96267826685892
-10.91976108320922 520.5996095834518 216.96093312289565
-10.365503147597993 537.2144907403705 223.88521822256254
-6.0645937017478495 344.2972595294814 143.48657456531927
-6.6054098590088755 606.4431622275316 252.73640613784121
-4.948489593403725 537.2144907403705 223.88521822256254
-0.439929323967325 544.5988823656676 226.96267826685892
0.32311004121522674 370.14263021802157 154.25768472035665
2.470208906132588 583.3669383984778 243.11934349941498
4.118646697962962 443.98654647099346 185.03228516332058
5.7447582624176885 524.2918053961004 218.49966314504385
10.847242414662443 560.2907145694242 233.50228086098875
12.352000866232231 587.0591342111264 244.65807352156318
9.32473267337993 382.1422666091295 159.2585572923383
16.903645385339264 574.1364488668564 239.2725184440445
16.834066657190252 540.9066865530191 225.42394824471072
20.86653236975396 527.984001208749 220.03839316719205
20.232108063312793 491.062043082263 204.65109294571008
22.24930540212549 448.60179123680416 186.95569769100584
26.883545220079114 524.2918053961004 218.49966314504385
22.74360648822253 416.29507787612897 173.49180999720912
30.237278043344833 506.75387528601954 211.1906955398399
31.31417313494653 510.44607109866814 212.7294255619881
27.283998519234164 432.90995903304764 180.416095096876
36.30399325894661 520.5996095834518 216.96093312289565
35.99062234215998 503.9847284265331 210.03664802322876
34.541998308769266 472.60106401902004 196.9574428349691
39.55272332412126 495.6772878480738 206.57450547339533
46.19467926835834 514.1382669113167 214.2681555841363
50.012604564456865 546.4449802719919 227.73204327793303
50.06862917534974 501.2155815670466 208.88260050661762
86.52927687962814 838.1284494712309 349.2917150276405
98.68076334429477 940.5868832722293 391.99147314225297
51.4884759198013 429.21776322039904 178.8773650747278
76.68016081165572 630.4424350097474 262.7381512818045
83.74196191979858 644.2881693071797 268.5083888648602
84.08783366159366 638.7498755882068 266.2002938316379
75.7170684729003 540.9066865530191 225.42394824471072
84.59412234228323 597.2126726959101 248.88958108247073
90.95158206286742 606.4431622275316 252.73640613784121
89.72139489455446 591.6743789769372 246.5814860492484
90.95076298303204 568.5981551478835 236.9644234108222
75.63505330853246 467.9858192532093 195.03403030728384
100.07504409848855 612.9045048996666 255.42918367660056
87.84763160447113 532.5992459745597 221.96180569487728
96.46103786928433 567.6751061947214 236.57974090528515
74.12147895947419 431.9869100798855 180.03141259133895
92.58838785233709 534.445343880884 222.7311707059514
77.20557721617837 429.21776322039904 178.8773650747278
80.94489321777506 426.44861636091264 177.72331755811666
76.84582034028445 321.2210357004277 133.86951192689307
66.87455294964874 266.76114746386094 111.17324410020717
85.0117320144005 336.9128679041842 140.4091145210229
91.89158626264712 361.8351896395622 150.79554217052322
79.08890277627737 305.5292034966712 127.32990933276322
91.21555018976673 347.98945534213 145.02530458746747
50.143520788883926 185.53283958559186 77.32118361294685
72.72376452939008 261.222853744888 108.86514906698487
67.20309127107272 239.99272782215863 100.01745143963275
53.223387299264246 183.68674167926756 76.55181860187275
-110.63871276073245 302.0560948735177 125.264183028352
-124.9073039686887 350.08947999101895 145.18386962613275
-165.95095672343743 491.41847850982083 203.79371673114147
-179.1374517156312 532.9858310153508 221.03190705614404
-169.42202553199036 516.3588900131388 214.136630926143
-144.76883952605564 443.38509339231956 183.87403013336072
-159.52904510908135 503.42682478919613 208.77363838058665
-138.93518296552884 449.85112600429085 186.5555264061389
-135.94047635712383 442.46137444775223 183.49095923724957
-136.24254032571798 455.39343967169486 188.85395178280592
-158.87065183627666 533.9095499599181 221.4149779522552
-126.65975244904523 455.39343967169486 188.85395178280592
-120.71542504143186 447.07996917058887 185.4063137178054
-119.47239229586036 459.08831544996417 190.38623536725058
-99.61333797895387 385.1907998845776 159.74056367835712
-92.99922296276866 371.33501571606763 153.99450023668962
-89.63438427895103 360.25038838125965 149.3976494833556
-78.0187177848999 324.2253495431337 134.45788453502004
-77.92922910109408 326.07278743226834 135.22402632724237
-73.76390902956645 319.606754820297 132.54253005446418
-79.18573880340908 358.40295049212494 148.63150769113327
-94.52027961181263 494.1896353435228 204.94292941947498
-80.56725584982574 424.9107145009729 176.21261221113735
-77.7218102133671 428.6055902792422 177.74489579558204
-88.63023119472892 493.2659163989555 204.5598585233638
-89.82315003164099 593.0275624122274 245.93151530336996
-75.53804267054507 533.9095499599181 221.4149779522552
-75.94043542369367 543.1467394055915 225.24568691336688
-68.0145412621228 517.2826089577061 214.51970182225418
-79.26346711173467 610.5782223590068 253.20986232948218
-74.05853217437176 609.6545034144394 252.826791433371
-72.59831091671957 605.95962763617 251.29450784892632
-59.611254156438 534.8332689044854 221.79804884836636
-67.23632248692952 612.4256602481414 253.9760041217045
-49.85182907330128 499.7319490109268 207.241354796142
-44.827470244389566 490.4947595652535 203.4106458350303
-32.12484257550286 364.8689831040963 151.31300396391143
-27.051167206850494 332.5388200442397 137.90552260002053
-36.94470185709736 463.70691017280086 192.30158984780644
-31.31838030818517 449.85112600429085 186.5555264061389
-21.715139891151104 319.606754820297 132.54253005446418
-24.3624156583243 367.64013993779827 152.46221665224493
-31.337547249297376 511.74029529030213 212.22127644558716
-24.167474031539605 417.52096294443425 173.14804504224801
-15.835495137165431 309.44584643005635 128.32875019724133
-20.345581979323264 411.0549303324629 170.46654876946985
-16.668919528951502 405.51261666505894 168.16812339280284
-17.299440077510866 438.76649866948287 181.95867565280489
-18.791890295789884 520.9774847359755 216.05198540669886
-15.537504877383494 500.65566795549415 207.62442569225314
-8.789267083329674 338.08113371164364 140.20394797668754
-12.197605465286896 581.9429350774194 241.33466455003597
-10.347693004732704 536.6807067936202 222.56419064058872
-5.500697264855048 345.4708852681823 143.2685151455769
-6.555140377585673 602.2647518579007 249.76222426448166
-4.973997271720238 540.3755825718895 224.09647422503338
-0.43918368104534644 544.0704583501588 225.62875780947806
0.3464771015524875 397.19914616395295 164.72048532780232
1.8956508219530146 448.0036881151562 185.78938461391655
4.752284651495726 512.6640142348695 212.60434734169834
6.533651122397582 596.7224381904967 247.46379888781465
4.572806482755345 362.0978262703943 150.16379127557792
4.982660544215351 348.2420421018843 144.4177278339104
11.436960700797304 591.1801245230927 245.16537351114764
12.58505748634982 598.5698760796314 248.22994068003698
17.256937009148608 586.561529800256 243.2500190305918
16.747885428569827 538.5281446827548 223.33033243281105
11.323898889432222 345.4708852681823 143.2685151455769
21.48669154857532 544.0704583501588 225.62875780947806
19.889835558482314 483.10500800871483 200.34607866614095
14.644789958119947 341.776009489913 141.73623156113223
26.14064482430793 527.4435173479468 218.73348167947702
24.848347254474533 484.9524458978495 201.11222045836328
30.732971126022615 515.4351710685714 213.75356003003185
28.93588150444426 472.02038067390686 195.74922791280693
34.20680411366671 543.1467394055915 225.24568691336688
35.95357266643952 556.0788046295341 230.60867945892323
32.8280790107496 471.09666172933953 195.36615701669578
34.34270007374606 481.2575701195802 199.57993687391863
39.46693166138676 540.3755825718895 224.09647422503338
40.43658306320777 507.1217005674655 210.30592196503133
47.60457073615384 530.2146741816488 219.88269436781053
50.2530440157746 503.42682478919613 208.77363838058665
87.29164936314909 846.1265532236765 350.89294083783005
89.57772923795159 854.4400237247825 354.34057890283054
104.76747416824068 925.5663824564671 383.8370379033905
51.4884759198013 429.52930922380955 178.12796669169322
70.16852197259857 577.3243403545828 239.4193100694801
58.94501543824776 472.02038067390686 195.74922791280693
74.02405516406264 569.934588798044 236.35474290059076
78.61969418938021 597.6461571350641 247.84686978392583
48.729372532701916 365.7927020486636 151.6960748600226
84.63255947056263 605.0359086916027 250.91143695281517
80.4101781151533 568.0871509089094 235.58860110836844
76.46141495594334 533.9095499599181 221.4149779522552
82.6455015091809 551.4602099066974 228.6933249783674
77.82386203022197 513.5877331794368 212.98741823780952
74.1496349694688 484.02872695328216 200.72914956225213
77.38602413137498 499.7319490109268 207.241354796142
97.15195136823877 607.8070655253047 252.06064964114867
68.3251566376881 423.06327661183826 175.44647041891503
80.33132304893735 492.34219745438816 204.17678762725265
90.43586338484549 548.6890530729954 227.5441122900339
93.16724633228436 548.6890530729954 227.5441122900339
85.17518518688065 473.8678185630415 196.5153697050293
80.59448242462453 424.9107145009729 176.21261221113735
74.297931496829 372.25873466063496 154.37757113280077
196.82316997564607 877.5329973389657 363.91735130560977
72.93123456284155 315.9118790420277 131.01024647001952
202.0935683621013 869.2195268378598 360.4697132406093
97.47347134775053 391.65683249654893 162.4220599511353
74.04794790272526 295.59006226154634 122.58268675557382
99.91789872377484 396.2754272193856 164.33741443169114
89.12435267538206 344.547166323615 142.88544424946573
70.93141122218894 272.49708864736306 113.00591435279462
70.10114100336509 259.5650234234204 107.64292180723825
71.95284123049194 258.64130447885304 107.25985091112709
67.02166780978122 232.77717403096776 96.53386582001438
64.45646401569188 222.6162656407271 92.32008596279154
65.89244916445074 226.31114141899644 93.85236954723621
96.19131100626842 321.45419270943165 133.30867184668654
-266.0192255976825 511.1855255569211 210.94634024105366
-119.5893509311008 319.83759826888735 131.98450944557788
-109.15053759105935 299.50110358127023 123.59243081030992
-164.119373937109 475.13446679250893 196.0694735694423
-176.6959586496429 538.9171092218535 222.3900838346009
-159.74894048900518 501.941664335277 207.1317590432046
-150.9172726668681 489.0002586249752 201.7913453662159
-147.292499434963 479.756397403331 197.97676416836683
-135.1371241770306 452.02481373839856 186.5330205748196
-130.8346544534043 440.0077941502612 181.57406501761582
-140.38304663790416 485.3027141363175 200.26551288707626
-124.03936924900458 443.7053386389189 183.09989749675543
-127.17358511618131 457.57113047138506 188.82176929352906
-112.73423991472562 417.82252721831526 172.41907014277805
-109.37613379198484 420.5956855848085 173.56344450213277
-101.52438523034866 392.8641019198761 162.11970090858554
-94.46085112474071 379.92269620957427 156.77928723159684
-78.46326888338936 326.3083011240382 134.65471628407224
-95.72252934761657 415.049368851822 171.2746957834233
-80.41026053748242 364.2081321327792 150.29449919525342
-89.53503817240794 408.57866599667113 168.60448894492896
-68.04304308298603 322.6107566353806 133.1288838049326
-67.89879944149803 324.4595288797094 133.89180004450242
-78.51308876961127 393.7884880420405 162.50115902837047
-75.79289710928526 396.5616464085337 163.64553338772518
-93.52807526914553 493.62218923579724 203.69863596514043
-77.88931411468901 429.83954680645263 177.37802569998183
-87.70920756321796 512.1099116790855 211.32779836083859
-93.04111335053155 614.7167712393355 253.6696496569633
-102.67435142207903 685.8945026459954 283.04192488040115
-77.36654068566469 588.833959818732 242.98882230298588
-65.30616019012783 537.9927230996891 222.008625714816
-65.5826751254767 588.833959818732 242.98882230298588
-63.48406919580374 578.6657124749233 238.7927829853519
-51.999198732113214 513.03429780125 211.70925648062348
-51.234042448716295 513.9586839234144 212.0907146004084
-47.022412290254216 514.8830700455787 212.4721727201933
-32.32120373948015 360.5105876441216 148.7686667161138
-34.80869018307652 395.6372602863693 163.26407526794029
-28.85457835397386 354.9642709111351 146.47991799740436
-39.66771773102684 498.2441198466193 205.60592656406496
-25.000565424974926 320.7619843910518 132.36596756536278
-36.550581480943485 513.03429780125 211.70925648062348
-35.691377969287 513.03429780125 211.70925648062348
-21.777900411067723 320.7619843910518 132.36596756536278
-19.696079749947963 330.93023173486034 136.56200688299677
-26.840867176621423 464.041833326536 191.4919761320234
-15.740954867689817 307.82057868075 127.02555388837409
-18.37960439480439 371.6032211100945 153.3461641535327
-16.365157897444412 398.4104186528626 164.408449627295
-20.176610111454778 512.1099116790855 211.32779836083859
-19.666373239896014 521.3537729007296 215.14237955868765
-15.021499180348616 484.3783280141531 199.88405476729136
-15.429108190837848 525.9757035115517 217.04967015761218
-12.197605465286896 582.363256963581 240.31861546449153
-11.59440300530291 601.7753655290337 248.32923597997458
-6.856757266124891 630.4313353161306 260.1544376933067
-4.905976796209535 533.3707924888671 220.10133511589143
0.32311004121522674 370.67883498793014 152.96470603374777
1.5282463327497497 361.43497376628596 149.1501248358987
3.5535101448121194 383.62024069823195 158.30511971073648
5.653732163189239 516.7318422899076 213.23508895976312
4.596137128075525 364.2081321327792 150.29449919525342
5.29985909344922 370.67883498793014 152.96470603374777
11.594566850850066 551.8585149321553 227.7304975115896
8.640658538234028 380.8470823317387 157.16074535138176
9.34725618225283 383.62024069823195 158.30511971073648
17.691757469221642 601.7753655290337 248.32923597997458
15.139169160988505 487.1514863806463 201.02842912664607
19.370854350243622 490.849030869304 202.5542616057857
18.63483637410389 452.949199860563 186.91447869460453
22.24424853098219 519.5050006564009 214.37946331911783
23.66849977962732 477.9076251590022 197.213847928797
25.936941515146753 506.56359494609904 209.03904964212913
26.737246653965567 505.6392088239346 208.65759152234423
29.576353933107786 496.3953476022905 204.84301032449517
