# .PCD v.7 - Point Cloud Data file format
VERSION .7
FIELDS x y z
SIZE 4 4 4
TYPE F F F
WIDTH 862
HEIGHT 1
VIEWPOINT 0 0 0 1 0 0 0
POINTS 862
DATA ascii
119.50139449975559 406.00081923683575 286.657172906973
123.73583282548744 407.6346253504649 287.81072289855035
115.25525673862873 377.4092122483262 266.4700480543693
117.28791866711714 360.25424805522044 254.35777314280702
122.49402705056796 374.141600021068 264.16294807121454
111.27242317555068 320.2259982713071 226.0957983491618
119.55975148219166 342.2823808053002 241.66872323545613
120.05579542522584 333.29644718034 235.32419828178067
123.37855832912673 334.1133502371546 235.90097327756934
124.28651283154394 334.93025329396914 236.477748273358
131.3502424387996 345.5499930325584 243.97582321861083
140.70974774368125 368.42327862336606 260.12552310069384
131.57440963082888 336.5640594075983 237.63129826493537
146.93791542067 374.141600021068 264.16294807121454
147.34491210434186 366.7894725097369 258.97197310911645
154.26566127018071 382.31063058921353 269.93069802910134
156.00367297393396 378.22611530514075 267.04682305015797
143.48213378001918 346.366896089373 244.5525982143995
157.28912030947518 371.69089085062427 262.4326230838485
157.60415476073496 370.8739877938097 261.8558480880599
160.84876200167517 369.2401816801806 260.7022980964825
161.21575733102546 362.70495722566415 256.0880981301731
164.04463648097084 367.6063755665515 259.54874810490514
164.3160753024737 361.071151112035 254.93454813859572
166.44523494082006 364.3387633392933 257.2416481217504
169.26949569838683 363.5218602824787 256.6648731259617
162.2714665898964 347.18379914618754 245.1293732101882
180.0944959535811 378.22611530514075 267.04682305015797
176.50393921794895 362.70495722566415 256.0880981301731
168.3587846710624 344.73308997574384 243.39904822282216
173.79169035724846 349.6345083166312 246.85969819755422
138.1332148128626 276.93013626013544 195.52672357236187
139.28682595077126 274.4794270896918 193.79639858499584
137.68125334569245 270.394911805619 190.91252360605245
117.98382421031381 227.09904979444738 160.3434488292525
118.59056191012317 223.83143756718914 158.03634884609778
81.17800184407317 150.31016245387883 106.12659922511676
-313.3399651385554 470.2973727577243 330.8253031090308
-284.1694601141499 453.93920327049915 319.3183360443689
-445.3365743151855 866.9829828229352 609.8692544270829
-352.09037494750487 727.1206337071599 511.4846860242233
-160.63719338208878 499.7420778347297 351.5378438254223
-112.03672219838744 388.50652532159836 273.2904677857211
-108.4805881529869 386.0527998985146 271.5644227260218
-82.1424195572446 350.0648270266191 246.24909518376555
-47.65649774037919 301.8082270393048 212.30354234301282
-42.50908828882675 286.2679660264409 201.37192363158397
-66.43261842647657 453.1212947961379 318.7429876911358
-62.613122656514314 456.3929286935829 321.0443811040682
-62.08483601262146 458.8466541166667 322.77042616376747
-69.5688042624942 561.0852134118242 394.6889703179046
-62.86749972837472 548.8165862964053 386.05874501940815
-30.657989501097227 333.706657539394 234.7421281191036
26.161579363549716 388.50652532159836 273.2904677857211
26.784093838751733 386.8707083728758 272.1397710792549
29.995852586292767 381.145349052347 268.1123326066232
30.71727108323544 381.145349052347 268.1123326066232
38.96348349806359 432.67358293710635 304.35927886030834
40.6843246463288 442.4884846294415 311.26345909910555
43.929990495806706 425.31240666785504 299.1811436812105
50.898495957261616 451.4854778474153 317.5922909846696
49.782366772676404 434.3093998858289 305.50997556677453
53.17135880469662 428.5840405653001 301.48253709414286
53.567972687764254 425.31240666785504 299.1811436812105
59.12870137886859 436.76312530891266 307.2360206264738
59.05382809213896 430.2198575140226 302.63323380060905
62.14661357371872 423.6765897191325 298.0304469747443
67.44762754753235 426.94822361657754 300.33184038767666
68.904331490546 431.03776598838385 303.20858215384214
66.72551378128173 394.23188464212717 277.31790625835276
76.98403618097497 449.84966089869283 316.4415942782034
79.43427026764812 440.0347592063577 309.5374140394062
82.04986059111016 449.84966089869283 316.4415942782034
80.93316348057026 422.04077277041 296.8797502682781
86.95019647169087 449.03175242433156 315.8662459249703
90.48825716734885 445.7601185268865 313.56485251203793
83.44645837965473 407.31842023190734 286.52347991008236
93.38447637461928 435.9452168345514 306.6606722732407
92.0776802402242 426.1303151422163 299.75649203444357
90.7061595445158 402.41096938573975 283.0713897906838
95.73165082738326 421.2228642960487 296.304401915045
106.48348799115887 446.5780270012478 314.140200865271
100.09765438935189 404.0467863344623 284.22208649715
115.34238140360867 462.1182880141117 325.07181957669985
109.88955660115525 424.49449819349377 298.6057953279774
109.61010106813029 420.40495582168745 295.7290535618119
116.59365844732812 431.8556744627451 303.78393050707524
111.6117496888654 410.5900541293524 288.82487332301474
118.16359498288627 420.40495582168745 295.7290535618119
107.13812462175561 378.69162362926323 266.38628754692394
116.12449168963988 397.5035185395722 279.6192996712852
123.34852188807771 419.58704734732623 295.1537052085788
126.7308883619554 415.4975049755199 292.2769634424133
121.74098457182788 385.2348914241533 270.9890743727887
124.2028526474914 381.9632575267083 268.6876809598563
124.90111491837388 381.9632575267083 268.6876809598563
119.04058568494791 354.15436939842544 249.12583694993103
118.5806678784171 350.8827355009804 246.82444353699864
116.38187117850966 335.34247448811647 235.8928248255698
121.27182429577913 347.61110160353536 244.52305012406626
127.0627565043042 354.9722778727867 249.70118530316412
123.88110263240216 344.3394677060903 242.22165671113387
121.26694486139107 328.7992066932264 231.29003799970502
137.01830195087283 369.6946304112894 260.0574556613599
141.59742447303216 372.9662643087344 262.35884907429227
135.4058326402609 354.9722778727867 249.70118530316412
130.616343541284 334.5245660137552 235.3174764723367
130.57583313583558 332.8887490650327 234.1667797658705
137.50004047153504 342.7036507573678 241.07096000466768
151.62864141940838 376.23789820617947 264.66024248722465
141.17826992673506 342.7036507573678 241.07096000466768
142.12852874435862 343.52155923172904 241.64630835790078
143.80719571152017 340.24992533428406 239.3449149449684
143.0240347167903 336.978291436839 237.04352153203598
162.98392255921954 374.6020812574569 263.50954578075846
157.94787035809927 355.79018634714794 250.27653365639722
162.95100557109768 365.60508803948306 257.1807138951944
157.2527145994262 345.97528465481287 243.37235341760007
155.62256271372638 341.0678338086453 239.9202632982015
177.25749437179385 381.145349052347 268.1123326066232
161.5078361588851 345.97528465481287 243.37235341760007
164.9245492101909 346.7931931291741 243.94770177083316
152.6470858810595 319.80221347525253 224.96120611414096
176.90147061258398 363.96927109076057 256.0300171887282
171.1514659333786 350.8827355009804 246.82444353699864
165.02640707731373 331.25293211631015 233.0160830594043
135.97047295194338 268.2739795904932 188.71425986045585
143.92058506830693 282.99633212899585 199.07053021865158
141.70398822306672 273.999338911022 192.74169833308753
117.98382421031381 227.37855587243018 159.946842198801
105.69622999317059 200.38757621850863 140.9603465421088
115.6652979062049 215.1099287570113 151.31661690030452
81.17800184407317 150.49515928247177 105.86409699488986
-312.59162014167225 470.8740552397175 330.003975888327
-403.5706566401753 709.1772727610354 497.01468368572375
-500.7942177321093 885.243223850669 620.4074746700547
-409.0451423745895 736.2013489747932 515.9540423019234
-277.0334900537272 517.5520050634808 362.71741349812635
-245.56544475392792 460.22820703429784 322.5430164334605
-151.40431919669393 401.266586204281 281.22077945266125
-104.55982789546654 377.5181555921909 264.57710066872824
-34.8938709222068 218.64934391131231 153.23662880379706
-54.63061936092249 346.3995223763487 242.76814226219534
-40.079997529465224 270.240762137577 189.39358616199635
-66.43261842647657 453.6769158309626 317.9516567689272
-62.27649296481262 454.4958272313795 318.5255767269939
-61.97416785573622 458.590384233464 321.3951765173272
-73.92953106028902 596.9864109039202 418.387649430592
-65.42476643631038 581.427094295999 407.4831702273255
-43.675062488989845 431.5663080197063 302.45581790112755
-31.259126550138348 340.6671425734304 238.75070255572874
1.7725861136734482 615.8213731135088 431.587808466125
3.0955782494572937 648.5778291301848 454.54460678879127
11.261754436449191 409.45570020845 286.95997903332784
28.426247583622345 411.0935230092838 288.10781894946115
29.545271109674637 375.8803327913571 263.4292607525949
35.00186898111163 434.84195362137393 304.75149773339416
39.25810341109243 436.4797764222077 305.89933764952747
41.21073919812972 448.76344742846123 314.5081370205273
45.531200930572226 449.5823588288781 315.0820569785939
46.37993227345746 449.5823588288781 315.0820569785939
49.9698709789765 436.4797764222077 305.89933764952747
56.114048509536694 452.8580044305457 317.37773681086054
54.186064680315376 430.7473966192894 301.88189794306084
55.25322469673301 408.6367888080331 286.3860590752612
56.147905699807644 383.25053539510924 268.5945403751948
67.07584419248512 452.0390930301288 316.8038168527939
71.45313799575744 452.8580044305457 317.37773681086054
70.2118140615241 439.7554220238753 308.1950174817941
73.23194354833618 433.2041308205401 303.60365781726085
67.74595183925797 396.3531178017796 277.7772597042613
75.63505330853246 415.1880800113683 290.9774187397944
90.43453949970035 467.59840963804993 327.70829605606036
95.96736264720667 473.3307894409682 331.72573576252694
86.12746909064765 420.92045981428663 294.994858446261
87.9531090807859 411.0935230092838 288.10781894946115
94.90540170633473 439.7554220238753 308.1950174817941
96.42138504427187 428.2906624180387 300.1601380688609
98.5199513369187 434.023042220957 304.1775777753275
104.72826566163427 439.7554220238753 308.1950174817941
101.31341537383794 409.45570020845 286.95997903332784
113.5050691334627 455.3147386317964 319.09949668506056
122.38181833423455 473.3307894409682 331.72573576252694
121.12555915700001 465.14167543679923 325.9865361818604
111.6117496888654 411.0935230092838 288.10781894946115
119.46964165600811 409.45570020845 286.95997903332784
128.94315244339373 425.833928216788 298.4383781946609
115.25525673862873 378.3370669926078 265.1510206267949
119.49311132920984 380.7938011938585 266.87278050099485
118.89777686420558 376.699244191774 264.0031807106616
121.2773036557946 373.4235985901064 261.70750087839497
120.88930180536401 370.1479529884388 259.41182104612835
116.8412215152491 348.0373451771825 243.91598217832865
116.64578518576228 345.5806109759318 242.1942223041287
122.34289384862844 352.95081357968394 247.35950192672857
127.26407914333528 365.2344845859374 255.9683012977284
132.7087346489629 369.32904158802194 258.8379010880617
123.07689926230735 334.1158513700952 234.1593428911955
141.2622316573158 381.6127125942754 267.4467004590615
143.15002781155226 377.5181555921909 264.57710066872824
136.6538126645951 358.6831933826022 251.37694163319517
120.30942856495906 307.0917751563375 215.21998427499585
150.2983735941839 375.0614213909402 262.8553407945283
136.136149796121 338.2104083721797 237.02894268152878
139.49356503500792 339.02931977259664 237.60286263959543
153.9725728063885 372.6046871896895 261.1335809203283
154.8692876893294 366.87230738677124 257.11614121386174
161.42275762938712 380.7938011938585 266.87278050099485
154.52268044850877 357.0453705817684 250.22910171706187
162.2722023733714 373.4235985901064 261.70750087839497
167.38843272433047 377.5181555921909 264.57710066872824
156.75376374848324 352.131902179267 246.78558196866192
172.04316885138576 377.5181555921909 264.57710066872824
157.0973072436714 338.2104083721797 237.02894268152878
164.56235788293023 352.95081357968394 247.35950192672857
166.86941417729219 351.3129907788501 246.21166201059526
165.13994201454776 346.3995223763487 242.76814226219534
155.8323066969279 321.0132689634248 224.97662356212902
153.59746942739108 315.2808891605065 220.95918385566242
167.47124273771837 336.5725855713459 235.88110276539547
142.18863482474566 280.88661034299673 196.85454561686288
149.31793385893297 289.0757243471657 202.59374519752944
146.84317689485098 283.34334454424743 198.57630549106284
-443.8775989456978 863.3671590184963 602.8317748164328
-354.4666879392766 733.8210895741256 512.3783841032358
-200.34630895637386 441.9324774083281 308.57201009122247
-37.22291176892083 220.55628278820086 153.999760138291
-35.155248232485505 220.55628278820086 153.999760138291
-40.682376119835894 258.27222705681515 180.3342916117534
-44.816724510220205 302.54746598084057 211.2487416023397
-56.719546057262484 387.8182965011859 270.78768232495037
-62.08483601262146 459.97053771070887 321.1667860133132
-60.94967609777426 485.3878045004272 338.9139702671683
-73.92953106028902 597.7157254743436 417.345074872915
-66.33411297718227 580.4975770038893 405.3227887654648
-68.4656358622234 609.1944911213131 425.35993227788185
-15.781905564176837 228.75540110746485 159.72465828469586
-9.484492058956944 223.01601828398006 155.71722958221247
-3.958962734380186 119.707127461254 83.5835129375111
-4.1470679714982985 629.6922869194731 439.672177643894
2.8376133953358527 595.2559899785645 415.62760542899355
21.379476590108236 382.8988255096275 267.35274343710745
25.500655253312672 379.61917818192194 265.0627841785455
26.953971812359036 390.2780319969651 272.5051517688718
30.188958933414824 384.53864917348034 268.4977230663884
33.88128183859016 421.4346816101682 294.2597647252103
37.711348867691036 419.7948579463154 293.11478509592934
40.909930882814905 446.0320365679601 311.43445916442494
40.555113397176356 400.93688581200826 279.9475193591981
46.210970771550514 448.4917720637393 313.1519286083464
43.8907320211169 390.2780319969651 272.5051517688718
50.063623082126554 437.83291824869616 305.70956101802005
56.41846468589946 455.87097855107686 318.3043369401108
52.331788702662 416.51521061860984 290.82482583736737
60.7896199569267 450.1315957275921 314.29690823762735
56.58389611870349 413.2355632909042 288.53486657880546
55.54803491241653 379.61917818192194 265.0627841785455
64.40253156162521 434.55327092099054 303.4196017594581
63.82974714268387 405.03644497164026 282.8099684324006
63.67440120663359 399.2970621481555 278.80253972991716
73.09350887244139 432.91344725713776 302.27462213017714
75.86426838197897 444.39221290410734 310.2894795351439
78.25309152760873 434.55327092099054 303.4196017594581
72.50224044959916 398.4771503162291 278.23004991527665
85.32488552990353 446.0320365679601 311.43445916442494
85.04964572914025 440.29265374447533 307.4270304619415
91.8165251624659 453.4112430552977 316.5868674961893
90.98680100432232 445.21212473603373 310.86196934978443
93.91009256434509 439.47274191254894 306.854540647301
98.26332094734099 455.87097855107686 318.3043369401108
101.21479997955116 450.1315957275921 314.29690823762735
101.30825184645413 446.8519483998865 312.0069489790654
104.87854738618681 444.39221290410734 310.2894795351439
105.70338917803683 444.39221290410734 310.2894795351439
111.6473837419694 451.7714193914449 315.4418878669083
113.3009233256687 455.05106671915047 317.73184712547027
111.5834225988609 432.09353542521137 301.70213231553663
123.89779906728347 476.3687743492368 332.61658230612295
113.06051728225758 419.7948579463154 293.11478509592934
113.83509131613364 419.7948579463154 293.11478509592934
122.07172944730078 435.37318275291693 303.9920915740986
118.99176308938408 408.3160922993458 285.09992769096255
129.93502284680446 429.63379992943214 299.98466287161517
115.75419724399076 380.43909001384833 265.63527399318593
120.1901440040339 381.2590018457747 266.20776380782644
120.21346765881394 370.6001480307316 258.7653962175001
131.32001589918968 402.57670947586104 281.0924989884791
120.96502933343437 360.7612060476148 251.89551844181426
121.62119782401754 360.7612060476148 251.89551844181426
120.35588629192218 347.64261673679243 242.7356814075665
123.55458804722909 355.02182322413 247.88808973933087
115.93744602696881 324.68508544285334 226.70596659763285
137.71105945834728 383.71873734155395 267.9252332517479
120.96528579457168 328.7846446024853 229.5684156708353
139.14026680409432 376.3395308542163 262.7728249199835
127.31347375864735 336.16385108982286 234.72082400259967
135.72602935218998 348.4625285687188 243.30817122220697
137.63398627831316 351.74217589642444 245.5981304807689
140.84132894838964 342.72314574523404 239.30074251972357
142.8053312621889 346.00279307293965 241.5907017782855
157.98050105808827 374.69970719036354 261.62784529070257
158.645591906731 374.69970719036354 261.62784529070257
164.4461553396974 380.43909001384833 265.63527399318593
139.1412963333075 320.5855262832213 223.8435175244304
163.03125009376222 368.14041253495236 257.04792677357864
165.86735466409272 373.05988352651076 260.48286566142156
161.71378451714043 356.66164688798284 249.03306936861185
155.62256271372638 341.90323391330764 238.72825270508307
160.14035435735025 345.18288124101326 241.01821196364503
164.1805426674246 352.56208772835083 246.1706202954094
159.08995430888697 335.34393925789647 234.14833418795916
163.18793324369022 342.72314574523404 239.30074251972357
154.24218111838783 318.12579078744216 222.12604808050895
152.40060602925556 313.20631979588376 218.69110919266603
138.87093014527798 280.40984651882786 195.79151660704656
138.87228182591778 274.6704636953431 191.78408790456314
144.66496708145914 280.40984651882786 195.79151660704656
121.22710460441198 230.39522477131763 160.86963791397685
108.18883378299013 201.69831065389374 140.83249440155979
109.85501336507727 204.1580461496729 142.54996384548127
82.00828859903625 150.0438652425307 104.76563607920912
-455.9852685745087 873.4479908561643 607.6056346589702
-232.9669474186577 450.67946144740057 313.5108020937731
-227.96600987192951 442.470363788978 307.8002228206625
-442.191454220358 861.1343443685305 599.0397657493043
-120.94925689473176 330.82663563443066 230.13634470635807
-107.56126113474124 384.18577041417757 267.2551099815771
-97.78518635281874 366.1257555656478 254.69183558073374
-62.67202918889912 375.976672755755 261.5445307084665
-47.139896138857466 299.6320645324248 208.4361434685377
-76.66766184029973 620.6077829767484 431.719793047163
-69.70703397602205 610.7568657866412 424.86709791943025
-68.09704562877938 606.6523169574299 422.01180828287494
-35.372335277588 343.9611918879068 239.27327154333506
-30.207136714316384 330.0057258685884 229.565286779047
17.948136234124036 403.8876047943918 280.9605002370426
26.614215865144427 385.8275899458621 268.39722583619925
39.70003328063568 442.470363788978 307.8002228206625
40.308314252185276 440.0076344914512 306.08704903872933
41.633265696078794 412.0967024528144 286.6710795101532
43.25414448817891 420.305800111237 292.38165878326384
50.06862917534974 445.754002852347 310.0844545299068
50.907392010477004 445.754002852347 310.0844545299068
55.525263997509484 442.470363788978 307.8002228206625
59.79306881009183 443.29127355482024 308.3712807479736
58.04340137573354 424.4103489404483 295.23694841981916
61.30679447137117 419.4848903453947 291.81060085595277
66.71130156100422 450.67946144740057 313.5108020937731
67.31841753307347 427.6939880038173 297.5211801290634
74.2009862795996 440.0076344914512 306.08704903872933
77.82386203022197 456.4258298082964 317.5082075849506
81.3536857202121 452.3212809790851 314.65291794839527
78.32032147333243 430.97762706718635 299.80541183830763
85.95227439409399 449.8585516815583 312.9397441664621
86.31667955750733 447.39582238403153 311.2265703845289
86.33741968260807 426.87307823797505 296.9501222017523
89.98142198769997 440.82854425729346 306.6581069660404
101.44392461708173 475.3067544226684 330.642539913105
90.15504980831238 398.141236433496 276.9630947458652
97.33193604290031 412.91761221865664 287.2421374374643
105.50836447475632 444.1121833206625 308.94233867528465
106.98696663477286 433.4403563647131 301.51858562024086
104.31850778273281 419.4848903453947 291.81060085595277
119.41755283824963 462.99310793503446 322.07667100343906
105.98486426237501 407.9921536236031 283.8157898735979
115.71037315606048 430.1567173013441 299.2343539109966
112.94575466522635 417.02216104786794 290.0974270740196
104.1402889635165 371.8721239265437 258.68924107191117
119.46964165600811 410.45488292112987 285.5289636555311
138.61388887664825 458.88855910582316 319.22138136688375
114.50684598058568 376.79758252159723 262.11558863577756
127.97326761708925 408.81306338944535 284.386847800909
120.44861743199957 382.54395088249305 266.11299412695496
130.31990963013016 402.2457852627073 279.8183843824205
132.12237852179163 405.5294243260763 282.10261609166474
133.2304939799465 395.6785071359692 275.24992096393197
116.09801295612304 335.7520942294842 233.56269227022443
112.42611475891054 323.4384477418503 224.9968233605585
137.3097529965868 385.0066801800198 267.8261679088882
138.0053138588993 385.0066801800198 267.8261679088882
141.1764432714702 384.18577041417757 267.2551099815771
137.92771545939632 373.5139434582282 259.8313569265333
135.38701111895182 357.9166579072252 248.9812563076231
144.45368781668387 380.0812215849663 264.3998203450218
138.6002276208246 356.2748383755407 247.839140453001
138.59646170683283 354.6330188438562 246.69702459837887
152.26734792074524 380.90213135080853 264.97087827233287
135.80652231477447 338.214823527011 235.27586605215762
157.68837786566112 384.18577041417757 267.2551099815771
147.6097898288921 350.5284700146449 243.84173496182356
141.63545185546226 334.93118446364196 232.9916343429134
139.85301651915563 322.61753797600807 224.42576543324745
166.29913706668842 375.976672755755 261.5445307084665
152.37924010899067 343.14028212206455 238.702213616024
172.04316885138576 378.43940205328175 263.25770449039965
159.7599734681404 344.78210165374907 239.84432947064613
153.4897166332667 330.0057258685884 229.565286779047
164.53557621677064 347.24483095127584 241.55750325257932
170.60556657294885 358.7375676730675 249.5523142349342
166.9631857467085 344.78210165374907 239.84432947064613
168.3587846710624 346.4239211854336 240.98644532526825
141.80046830346956 285.6765985131064 198.72815870424964
150.1599167909214 296.34842546905577 206.15191175929345
138.74300936467426 269.2584031962612 187.3070001580284
149.38959036701604 288.96023757647544 201.0123904134939
119.070038686184 226.57109537246367 157.61198793785317
106.03900608751889 201.12289263135364 139.90919219121025
108.18883378299013 201.9438023971959 140.4802501185213
-405.0172066502426 706.0165660480411 489.30727407809087
-227.12012486312827 441.3630919299163 305.8882493363618
-227.20800173953572 443.0069023281655 307.0274979372421
-125.15096805236512 342.73446803496296 237.53333328354353
-110.6163448886285 383.0078227920689 265.444924005111
-80.6070472290718 345.20018363233675 239.242206184864
-61.08208851437068 276.982052104994 191.96338924833134
-56.94022960953796 323.8306484550969 224.43197437342002
-59.935259355322735 359.99447721657975 249.49544359278673
-50.16072418081557 339.4468472384645 235.2548360817829
-62.63817679704768 465.19834270453003 322.40735404912624
-57.86101007930597 461.9107219080316 320.1288568473656
-75.65353932918465 613.14127854696 424.93972812835364
-35.119072733834386 341.91256283583834 236.96370898310337
-8.436579462954795 156.98389303280078 108.7982413840691
-6.948547320724657 150.4086514398039 104.24124698054787
13.506610541018674 408.48688396493185 283.1032773187557
14.219902722370607 406.8430735666826 281.9640287178754
19.62621401211124 442.1849971290409 306.45787363680193
18.178473034329915 392.8706851815642 272.2804156103928
25.274318921694096 438.8973763325425 304.1793764350413
26.877580482973183 401.0897371728103 277.97665861479436
27.690109697990692 401.91164237193493 278.5462829152345
34.34270007374606 428.2126087439225 296.77426052931935
39.92099821540731 445.47261792553934 308.73637083856255
41.58674959227324 454.5135751159101 315.0022381434042
41.88207007274858 415.0621255579287 287.66027172227695
46.71785527727136 454.5135751159101 315.0022381434042
44.07514686154176 392.8706851815642 272.2804156103928
50.43863149472675 442.1849971290409 306.45787363680193
63.668545492227416 472.5954894966515 327.5339727530876
62.38656188867516 427.39070354479793 296.2046362288792
66.83281577149786 452.04785951853626 313.2933652420838
69.77340780779208 443.8288075272901 307.59712223768224
70.08106580442629 440.5411867307917 305.3186250359216
77.26397813072397 453.6916699167855 314.4326138429641
76.92426544506444 428.2126087439225 296.77426052931935
74.5907823555547 410.9525995623057 284.81215022007615
85.16803831385592 446.29452312466395 309.30599513900273
84.5745080435026 438.8973763325425 304.1793764350413
91.8165251624659 454.5135751159101 315.0022381434042
90.98680100432232 446.29452312466395 309.30599513900273
93.03406558146874 436.43166073516863 302.4705035337209
97.90985576407716 455.3354803150347 315.5718624438444
103.24278322140009 460.26691150978235 318.9896082464853
104.09655235598956 460.26691150978235 318.9896082464853
103.13702169158223 438.07547113341786 303.6097521346012
100.04767278290201 421.6373671509256 292.2172661257981
111.6473837419694 452.86976471766087 313.86298954252396
106.35996586067277 428.2126087439225 296.77426052931935
112.59559020228171 433.9659451377948 300.76163063240045
111.51476802253922 415.0621255579287 287.66027172227695
117.17010375703599 433.1440399386702 300.1920063319603
116.55436314459793 416.70593595617794 288.79952032315725
119.17091615594846 423.28117754917486 293.3565147266784
119.2307023726961 410.1306943631811 284.242525919636
128.1992496408357 424.9249879474241 294.49576332755873
129.22559088876554 425.7468931465487 295.0653876279989
118.46521359734567 378.89829679644583 262.59680250291024
121.22403771589656 385.47353838944275 267.15379690643147
128.19223763616884 396.1583059780627 274.55891281215344
122.22657284303398 375.6106759999474 260.3183053011496
119.86534724858497 358.3506668183305 248.35619499190642
119.96272694459913 356.70685642008135 247.2169463910261
133.1295062993196 385.47353838944275 267.15379690643147
124.41062445402282 358.3506668183305 248.35619499190642
124.13504322079488 348.4878044288352 241.52070338662458
138.0053138588993 385.47353838944275 267.15379690643147
123.07689926230735 335.3373212428414 232.40671457958214
128.53044253798691 348.4878044288352 241.52070338662458
131.6607631065036 348.4878044288352 241.52070338662458
131.34989756117474 346.02208883146136 239.81183048530414
149.13895460581818 383.8297279911935 266.01454830555116
126.40510627891699 323.8306484550969 224.43197437342002
127.98333122648846 320.5430276585984 222.1534771716594
149.3212490499826 372.3230552034489 258.039808099389
141.17826992673506 344.37827843321213 238.67258188442383
145.17414007459487 352.5973304244583 244.36882488882534
158.3261914323948 376.432581199072 260.88792960158975
158.99273762206303 376.432581199072 260.88792960158975
164.40736293091578 379.72020199557045 263.16642680335036
140.51913983582625 318.0773120612246 220.44460427033894
161.49283102460018 364.1040032122028 252.3435650949875
156.13744711999766 345.20018363233675 239.242206184864
167.74797214154742 362.4601928139536 251.2043164941072
175.63499913259375 378.0763915973212 262.02717820247005
154.8112513812641 327.11826925159534 226.71047157518063
157.3319069311176 331.22779524721835 229.5585930773814
163.78293458962833 338.6249420393399 234.68521178134276
179.13055525428206 369.0354344069505 255.7613108976284
174.60380105985243 353.4192356235829 244.9384491892655
136.50332437259283 275.3382417067448 190.82414064745103
170.7921794396362 338.6249420393399 234.68521178134276
143.08867417195833 282.7353884988663 195.95075935141242
149.74093083870332 290.9544404901124 201.64700235581392
120.79569142076639 230.13345575489117 159.49480412324266
106.03900608751889 201.36677378552977 139.55795360783733
89.27777747132926 166.8467554222961 115.63373298935092
82.00828859903625 150.4086514398039 104.24124698054787
-195.85766455689551 325.86765898151043 225.00281960435527
-152.8182313389784 279.7853637720039 193.18423905424442
-151.00261641029394 277.31666938578036 191.4796722390599
-439.66223713234837 858.282748277059 592.6210627458145
-147.75831259523798 334.9195383976635 231.25289792669847
-123.63777960727771 340.6798252988518 235.23022049546233
-131.84953201873384 460.00005396632406 317.61761656271364
-106.41210236193417 381.00183360717 263.0714784768093
-73.4767466281217 330.8050477539576 228.41195323472428
-62.532108419756334 283.89985441570985 196.0251837462186
-56.24062007999462 338.2111309126282 233.52565368027783
-34.76318226706745 218.89090224515598 151.13825761302652
-59.28003377461802 377.71024109220525 260.79872272322996
-43.52895395092237 298.71202073305125 206.25258463732567
-62.74884495393292 466.58323899625356 322.1631280698723
-72.71258404695094 590.0179583074317 407.3914688290978
-58.421552000874335 521.7174136219131 360.2317869423264
-33.978701367145796 337.3882327838871 232.95746474188297
-16.008169443233136 232.88017043375618 160.79746956573874
-4.013195100604572 121.78892305369581 84.09196288243581
9.691271119889754 410.6261662418528 283.52628025902345
14.018813188922941 401.57428682569974 277.27620193668025
18.860135026508384 425.4383325591942 293.7536811501305
18.520745539160398 400.75138869695854 276.70801299828537
21.562598445269764 387.58501863709955 267.616989983968
21.6298946577045 376.0644448347229 259.6623448464403
25.831117308431196 385.93922237961715 266.48061210717833
28.992507495646695 421.32384191548823 290.9127364581563
33.08555414024567 422.96963817297063 292.04911433494595
31.57419066281068 394.16820366702905 272.1625014911267
45.116526969455904 447.65658203520627 309.0947824867911
46.37993227345746 451.77107267891216 311.93572717876526
58.51270862817326 467.40613712499476 322.7313170082671
64.11145711304292 476.4580165411478 328.9813953306103
64.9060191957178 445.18788764898267 307.39021567160654
75.72429740710447 445.18788764898267 307.39021567160654
87.20705212247493 457.5313595801005 315.9130497475291
90.15619016856958 446.83368390646507 308.52659354839625
88.47335346276645 434.4902119753472 300.0037594724737
98.1150220821516 460.82295209506526 318.18580550110846
94.02173874817518 437.78180449031197 302.27651522605305
107.25662626679639 474.81222028366545 327.8450174538207
101.58899885193372 432.0215175891237 298.29919265728915
107.2635868042809 452.59397080765336 312.5039161171601
110.22899592673568 447.65658203520627 309.0947824867911
119.42529755948863 481.39540531359495 332.3905289609794
111.1599560994345 432.0215175891237 298.29919265728915
120.05931303766023 463.2916464812888 319.89037231629294
125.2056900371876 466.58323899625356 322.1631280698723
118.94877705885058 440.2504988765356 303.9810820412375
119.31304629594936 427.0841288166765 294.89005902692014
127.03851062061301 451.77107267891216 311.93572717876526
129.7440308384248 446.83368390646507 308.52659354839625
125.5125310440089 429.55282320290013 296.5946258421047
128.44721724168838 426.2612306879354 294.3218700885253
132.96764467898075 438.60470261905317 302.8447041644479
119.4147237201369 380.17893547842885 262.5032895384145
126.59648364069787 391.69950928080544 270.45793467594217
128.37801961631578 394.9911017957702 272.73069042952153
133.88629383041484 400.75138869695854 276.70801299828537
120.23913875783553 357.96068600241676 247.16218820175388
128.30391651874723 371.94995419101696 256.8214001544661
132.97098852196018 383.4705279933936 264.7760452919938
136.431439011534 383.4705279933936 264.7760452919938
119.76154102467382 334.9195383976635 231.25289792669847
139.06482980373454 379.35603734968765 261.93510060001967
123.07396148684595 334.09664026892233 230.68470898830364
135.09383763417736 356.31488974493436 246.02581032496423
126.46472381992291 325.86765898151043 225.00281960435527
144.69213942079077 371.12705606227576 256.2532112160713
137.82820285929526 345.6172140712989 238.63935412583135
147.6731116432499 368.6583616760522 254.54864440088676
145.2215616668802 354.669093487452 244.88943244817455
154.64937532421877 376.0644448347229 259.6623448464403
142.42443421429402 339.0340290413694 234.09384261867265
155.86842618407488 369.4812598047934 255.1168333392816
144.95361537486258 336.5653346551459 232.38927580348815
153.01983995734585 353.8461953587108 244.32124350977972
147.41801233422598 334.09664026892233 230.68470898830364
156.50920294647383 346.4401122000401 239.20754306422617
175.02873360368747 385.93922237961715 266.48061210717833
156.33654546525167 338.2111309126282 233.52565368027783
176.0168143480994 379.35603734968765 261.93510060001967
180.87244194042162 382.6476298646524 264.20785635359897
167.4823525395768 353.0232972299696 243.75305457138487
166.9631857467085 345.6172140712989 238.63935412583135
172.7472837975593 356.31488974493436 246.02581032496423
169.73113684422864 343.9714178138166 237.50297624904167
168.6936605679207 340.6798252988518 235.23022049546233
165.4031058165409 328.336353367734 226.70738641953977
152.27891271732543 296.24332634682764 204.54801782214116
106.03900608751889 201.61004154159104 139.20628990673495
68.04623671075532 120.14312679621344 82.95558500564613
-277.1549112850176 439.13259803869835 302.07873367680645
-155.16958145025228 280.1221075668995 192.69562748614294
-220.98777178281847 433.3653781770269 298.1114707579741
-123.63777960727771 341.08986039028355 234.6352640566564
-107.34238670329516 382.2842879736511 262.9728563340304
-78.81376091422617 325.43597790860383 223.8669789912543
-78.11206719579101 335.32264052861206 230.66800113782406
-53.08081455635731 338.61819473528146 232.93500852001398
-62.9701812677034 468.792585898723 322.48180011651567
-72.00269828917038 584.9608716838196 402.3938103387103
-66.5214974771178 584.9608716838196 402.3938103387103
-66.06979934483738 590.728091545491 406.3610732575426
-33.978701367145796 337.79430618361414 232.3682566744665
-20.816276873179483 303.19098701358536 208.56467916147236
9.12805095460558 387.2276192836552 266.37336740731524
13.153318917209331 398.76205900699813 274.30789324497994
14.564627636852318 417.71149569534725 287.343185692572
20.282853142627975 458.08203472704747 315.1140261243985
17.531958302983455 379.81262231864906 261.27260079738795
23.760060707208083 427.5981583153554 294.14420783914176
25.321649106940715 440.78037514203305 303.2122373679014
27.097888519718865 405.35316742033694 278.84190800935977
27.80336168039556 404.5292788686696 278.2751561638123
30.575171627658936 391.347062041992 269.20712663505265
30.585437301762326 382.2842879736511 262.9728563340304
39.0371384763208 436.6609323836963 300.378478140164
40.38351633101398 442.42815224536776 304.34574105899634
41.96500486497185 416.8876071436799 286.7764338470245
46.37993227345746 452.314814865376 311.1467632055661
49.515384654075156 442.42815224536776 304.34574105899634
50.907392010477004 447.37148355537187 307.74625213228126
56.41846468589946 458.08203472704747 315.1140261243985
57.68858597143843 461.3775889337169 317.3810335065884
51.98084107730102 381.46039942198377 262.4061044884829
61.66671694380583 423.4787155570187 291.31044861140435
66.71130156100422 452.314814865376 311.1467632055661
70.93629793792195 452.314814865376 311.1467632055661
77.66185317696899 462.2014774853842 317.94778535213584
76.84406520610047 452.314814865376 311.1467632055661
81.3536857202121 453.9625919687107 312.2802668966611
82.65848285709404 434.18926672869424 298.6782226035216
93.91888252770981 488.56591113873947 336.0838444096552
90.15619016856958 447.37148355537187 307.74625213228126
99.19739630673814 487.7420225870721 335.5170925641077
95.6621465300978 449.84314921037395 309.4465076689237
104.44896165445778 486.91813403540476 334.95034071856026
106.0395645159232 451.49092631370866 310.58001136001866
103.75314214523172 438.308709487031 301.511981831259
110.63424958823103 449.84314921037395 309.4465076689237
108.60556974640676 438.308709487031 301.511981831259
116.86057467964086 451.49092631370866 310.58001136001866
114.38544521915904 426.7742697636881 293.57745599359424
113.16808882795317 419.35927279868196 288.47668938366695
126.34431110902497 449.84314921037395 309.4465076689237
123.29267018900038 425.1264926603534 292.4439523024993
120.9440672703764 414.41594148867784 285.0761783103821
129.19112004424642 429.2459354186901 295.2777115302367
130.47294215217062 430.8937125220248 296.41121522133164
133.1127562764101 426.7742697636881 293.57745599359424
115.79609572861762 369.10207114697346 253.90482680527072
128.19223763616884 397.1142819036634 273.174389553885
119.81948497522805 369.10207114697346 253.90482680527072
134.54879741125262 390.5231734903246 268.6403747895052
132.68564305302894 383.10817652531847 263.53960817957784
128.2338418177079 360.8631856303 248.2373083497959
125.79183086368178 343.5615260452856 236.33551959329884
125.19592634006743 340.26597183861617 234.06851221110892
130.10815976798352 345.2093031486203 237.4690232843938
142.26972277409902 375.6931795603123 258.43884156965055
148.1808885162733 382.2842879736511 262.9728563340304
137.45465972150717 343.5615260452856 236.33551959329884
137.47191916493534 336.14652908027944 231.23475298337155
134.34529978931042 327.08375501193854 225.00048268234926
159.3632625553144 379.81262231864906 261.27260079738795
158.645591906731 376.51706811197965 259.005593415198
163.73733570461252 380.6365108703164 261.8393526429354
165.47494320968795 383.10817652531847 263.53960817957784
149.59660364951012 339.44208328694884 233.50176036556147
166.59644193734147 376.51706811197965 259.005593415198
166.91836608780702 369.92595969864084 254.4715786508182
172.41636444542345 380.6365108703164 261.8393526429354
177.63787526100373 384.7559536286532 264.6731118706728
179.0713360721445 386.4037307319879 265.8066155617678
154.8112513812641 327.9076435636059 225.56723452789674
157.422432275468 326.2598664602712 224.4337308368018
154.3010334947533 313.0776496335936 215.3657013080421
137.72574220279515 278.4743304635648 191.562123795048
169.13400294022225 336.14652908027944 231.23475298337155
148.0801395500499 293.30432439357713 201.7636570149026
152.27891271732543 296.59987860024654 204.03066439709252
126.47186911753063 245.51878839687075 168.89204997314883
108.18883378299013 202.67658371016847 139.42095400467988
67.5801665962981 119.46383999176597 82.1790176043845
-439.0346416597819 861.995905805981 590.7521124581158
-123.04569055338695 293.6560214994538 201.25143735415236
-285.40937774421263 740.7390654677234 507.6510975955866
-120.34901244364127 330.7754624193286 226.69052353655925
-203.53142908642894 681.3479599959237 466.94855970373555
-109.90422249664162 381.91780324226715 261.7399311656532
-113.91354735457378 425.6362558812308 291.70152155826577
-74.63630884890065 323.3515742353536 221.6027063000779
-75.3045263949904 339.8491035330758 232.90896682559207
-59.37755277038269 282.1077509910483 193.33705498629243
-23.844398943300384 119.6070874084854 81.97038880997779
-53.63633087780258 394.2909502155588 270.2196265597889
-63.19151758147389 471.00446144996664 322.7937380034298
-75.34930257585013 612.8832134103769 420.0275785228517
-65.8656517273434 579.8881548149327 397.41505747182333
-59.80376537628934 535.344825711083 366.8881540529351
-8.225781774231207 159.2011577230185 109.10541407121181
-7.518100379800449 163.32554004744904 111.93197920259036
-4.013195100604572 122.08171680314372 83.66632788880491
0.3835420938115908 392.6411972857866 269.0890005072374
8.256056005888054 381.0929267773811 261.1746181393775
12.854379850909119 390.16656789112824 267.3930614284103
14.162448569956988 406.66409718885035 278.6993219539245
18.09405604090553 409.1387265835087 280.3952610327516
20.1180172283693 436.3596499247502 299.05059089985
21.837281228012053 393.46607375067265 269.6543135335131
29.411122905548524 440.4840322491807 301.87715603122854
32.634972663627536 418.21236769725584 286.6137043217844
31.046855536918223 388.51681496135603 266.2624353758589
41.13553711930102 451.2074262927001 309.2262253728128
45.033592177232634 447.90792043315565 306.9649732677099
43.929990495806706 428.9357617407752 293.96277366336864
49.782366772676404 438.0094028545224 300.1812169524014
56.24637132215246 450.382549827814 308.66091234653703
65.11638839057147 478.4283496339416 327.88155523991117
65.73918787705516 446.25816750338345 305.8343472151585
66.02631738848473 421.51187355680025 288.87495642688725
72.81663952065185 433.8850205300919 297.35465182102286
81.04319445233547 477.6034731690555 327.31624221363546
87.55487410541883 489.151743677461 335.23062458149536
82.94494997937682 458.6313144766751 314.3140426092941
86.31667955750733 449.5576733629279 308.09559932026133
88.49585517467328 439.6591557842946 301.31184300495283
96.1812592568711 473.479090844625 324.4896770822569
97.23899509927524 457.80643801178894 313.7487295830184
97.90985576407716 456.98156154690287 313.1834165567427
98.63373039901616 441.30890871406683 302.44246905750424
107.84866091412245 456.15668508201674 312.618103530467
110.43162275748335 449.5576733629279 308.09559932026133
107.58484070743677 434.70989699497795 297.9199648472986
111.1599560994345 433.06014406520575 296.78933879474715
118.35331924671657 457.80643801178894 313.7487295830184
107.76080553465175 402.5397148644198 275.87275682254597
126.34431110902497 450.382549827814 308.66091234653703
121.85903448912828 420.6869970919142 288.30964340061155
133.65453685959466 444.60841457361124 304.7037211626071
133.9655256897048 442.95866164383904 303.5730951100557
121.74098457182788 388.51681496135603 266.2624353758589
125.53264764371721 389.34169142624216 266.8277484021346
116.87748869235415 360.47101515522843 247.0417924824848
134.98597591526425 405.01434425907814 277.5686959013731
134.8889648593649 402.5397148644198 275.87275682254597
135.11651385602585 392.6411972857866 269.0890005072374
132.97098852196018 384.3924326369255 263.4358702444803
137.60252432493772 387.6919384964699 265.6971223495832
142.08142047192834 388.51681496135603 266.2624353758589
136.10888844234933 370.3695327338617 253.8255487977933
139.42377979910404 370.3695327338617 253.8255487977933
143.20570779234967 378.61829738272274 259.4786790605504
131.8937649940105 340.67397999796185 233.47427985186778
136.79803720824447 334.8998447437591 229.5170886679378
157.01818413662477 382.7426797071533 262.3052441919289
137.58476897400246 328.3008330246703 224.99458445773215
149.96694902343063 356.3466328307979 244.21522735110625
164.4461553396974 382.7426797071533 262.3052441919289
141.24533694092094 320.87694484069533 219.90676722125076
156.38922011185886 353.87200343613955 242.5192882722791
166.54661026133084 369.5446562689756 253.26023577151759
157.0973072436714 340.67397999796185 233.47427985186778
179.0713360721445 386.8670620315838 265.1318093233075
162.5907112496693 344.7983623223924 236.30084498324632
160.84552271866116 339.8491035330758 232.90896682559207
177.299002007219 367.8949033392034 252.12960971896618
166.36401234083655 343.9734858575063 235.73553195697062
165.26452797990683 335.72472120864524 230.08240169421353
136.38501707679686 271.38435694752894 185.98798564470823
151.82373858361856 301.07990968342875 206.33925459063374
135.3590335265115 263.960468763554 180.90016840822685
124.34985789072643 241.68880421162913 165.63671669878272
-199.15908650372856 335.2999173475658 228.9322288947442
-280.0662436222264 559.9343447331271 382.30554480452355
-269.2280608540099 540.1136599638129 368.7726051654254
-122.00857752983899 294.0068240781611 200.738604646623
-115.84717906046268 318.7826800398039 217.65477919549573
-204.02424126339366 683.813624541341 466.8864175488872
-75.82999823665877 323.73785123213247 221.03801410527026
-81.1828118521366 349.33956905916335 238.5180611391054
-79.20587877842519 343.5585360014467 234.57095374436844
-73.22600522197554 333.64819361678957 227.80448392481935
-54.324881196491155 327.86716055907294 223.85737653008238
-51.91846095293342 331.9964698860134 226.67673895489452
-49.553451490975185 336.95164107834194 230.05997386466905
-58.91019604779572 433.57747932874884 296.0330546052727
-70.16361146524422 523.596422656051 357.4951554661769
-57.86101007930597 464.1343683481083 316.89633654888235
-77.47895984919178 630.958465156503 430.798578511292
-64.46026797782683 568.192963387008 387.94426965414783
-63.85825794417337 572.3222727139485 390.7636320789599
-7.518100379800449 163.52064934684242 111.64675202255998
-0.3452326728760533 382.3740436746871 261.0729605376024
0.4077149148501365 417.88610388637505 285.3194773909866
5.461565953706957 445.96540730957025 304.49114187970906
13.452257983509543 408.80162336710606 279.11688005639996
14.133721493750178 406.32403777094174 277.42526260151266
19.80861377058811 448.4429929057345 306.1827593345963
18.82498776567638 408.80162336710606 279.11688005639996
22.157744474544725 399.717142847837 272.91428272181327
25.368979292187333 442.6619598480179 302.23565193985934
29.521276923921366 442.6619598480179 302.23565193985934
28.93588150444426 422.0154132133155 288.13883981579875
31.218859451399126 400.5430047132251 273.47815520677574
34.83880471565988 390.632662328568 266.7116853872266
40.909930882814905 449.2688547711226 306.74663181955873
42.96022237165102 427.7964462710322 292.0859472105357
46.37993227345746 453.3981640980631 309.56599424437087
49.792006914712445 445.96540730957025 304.49114187970906
56.45240198633617 452.572302232675 309.00212175940845
65.21873616508165 486.4326387135868 332.1208936428678
62.75872605229216 461.656782751944 315.2047190939951
66.46568324293469 457.52747342500356 312.38535666918295
66.58978735051059 452.572302232675 309.00212175940845
70.99630360411096 448.4429929057345 306.1827593345963
74.33942095549438 443.48782171340594 302.79952442482175
77.54392008047297 457.52747342500356 312.38535666918295
80.3057746163798 422.84127507870363 288.70271230076116
87.90047184296618 458.3533352903916 312.9492291541454
90.32222366795922 449.2688547711226 306.74663181955873
100.2027753233605 493.86539550207965 337.19574600752964
104.5976217554366 493.03953363669154 336.6318735225672
91.37074987369657 426.9705844056441 291.5220747255733
105.39775926043943 468.26367767504877 319.7156989736945
110.43162275748335 450.0947166365107 307.31050430452115
117.08848709140433 456.70161155961546 311.82148418422054
118.35331924671657 458.3533352903916 312.9492291541454
114.16462389634212 426.9705844056441 291.5220747255733
124.37063207342698 446.7912691749583 305.0550143646715
118.99176308938408 411.2792089632703 280.8084975112872
133.6876767441934 459.1791971557797 313.51310163910784
115.80086959820167 385.67749113623944 263.32845047745207
130.72241240485164 432.75161746336073 295.4691821203103
117.95126473141359 379.0705962131347 258.8174705977527
132.85534197435146 424.49299880947984 289.830457270686
131.58747010672366 406.32403777094174 277.42526260151266
131.01919947405526 391.4585241939561 267.27555787218904
134.83265563363923 392.2843860593442 267.83943035715146
130.68822477051023 378.2447343477466 258.25359811279026
137.89529565328866 388.9809385977918 265.5839404173018
138.0053138588993 387.32921486701565 264.4561954473769
139.36648887055392 381.54818180929897 260.50908805264
126.10533984859092 343.5585360014467 234.57095374436844
140.97638313762414 374.94128688619423 255.99810817294056
135.09383763417736 357.5981877130443 244.15678598872967
130.2969881781024 336.95164107834194 230.05997386466905
135.70903542127382 349.33956905916335 238.5180611391054
139.14085241033618 350.16543092455146 239.08193362406783
151.62864141940838 379.8964580785228 259.3813430827151
135.45027329486277 331.9964698860134 226.67673895489452
157.69498665445502 384.85162927085133 262.76457799248965
150.72100319765096 360.07577330920856 245.84840344361692
