# .PCD v.7 - Point Cloud Data file format
VERSION .7
FIELDS x y z
SIZE 4 4 4
TYPE F F F
WIDTH 862
HEIGHT 1
VIEWPOINT 0 0 0 1 0 0 0
POINTS 862
DATA ascii
118.62402808465819 934.0312150604801 238.49882450998186
127.58367786790515 992.1659379895557 253.34314968695168
318.61094738646807 2447.4718353140797 624.9460899504296
313.94412218195566 2382.554728043279 608.3699268361466
137.70991863172495 1008.6374428194604 257.54904182042645
131.28114250115863 950.5027198903849 242.70471664345663
332.717539698436 2381.585815994461 608.1225214165305
333.75743059693605 2362.2075750181025 603.1744130242072
271.8236332062789 1881.6271988044114 480.46132489459
140.9409092167766 965.0364006226538 246.4157979376991
142.18430311753556 963.098576525018 245.92098709846675
353.63738609679183 2369.958871408646 605.1536563811366
358.41461238127573 2376.7412557503712 606.8854943184497
291.0129120772016 1909.725648220131 487.63608206345873
287.77123832773 1869.0313421697783 477.24505443957986
158.25119925212798 1017.3576512588218 259.7756905969719
146.46346898353767 932.0933909628443 238.00401367074952
380.149257794601 2395.150584677912 611.5861972911567
384.40419445178185 2398.0573208243654 612.3284135500053
309.93009891009075 1914.5702084642207 488.87310916153956
170.46497659860336 1032.8602440399086 263.73417731083055
161.76499048188373 970.8498729155614 247.90023045539607
397.6540324592496 2364.145399115738 603.6692238634396
405.0074439803417 2385.4614641897324 609.1121430949952
326.91996029818324 1907.7878241224953 487.14127122422644
172.13610003585828 986.3524656966481 251.8587171692547
222.1489273286495 1261.523487560939 322.1218563402452
420.9061266661691 2368.989959359828 604.9062509615204
425.85791613081784 2375.7723437015534 606.6380888988335
346.57261219017204 1900.0365277319518 485.1620278672971
231.0241322696071 1255.7100152680314 320.6374238225482
242.71069764905002 1308.0312659041995 333.99731648182103
460.16886589468925 2459.098779899895 627.9149549858236
450.87624278782766 2389.3371123850043 610.1017647734598
358.0177854243498 1866.1246060233245 476.5028381807314
234.0761403765671 1210.171148973589 309.0093691005885
234.65668656054788 1203.3887646318635 307.2775311632754
477.0967007545065 2427.1246822889034 619.7505761384901
469.77638357899946 2370.9277834574636 605.4010618007527
376.16955003458884 1883.565022902047 480.95613573382235
374.05738089201964 1858.373309632781 474.52359482380206
214.62832177236476 1058.0519573091747 270.16671822085084
219.85435676899084 1075.4923741878972 274.62001577394176
493.9788576517992 2398.0573208243654 612.3284135500053
480.8477121258864 2316.6687087236596 591.5463583022475
404.0379005108657 1932.0106253429433 493.32640671463054
383.1816812293336 1818.6479156312462 464.37997261953933
196.40940028421804 925.3110066211188 236.27217573343637
252.14083985301187 1179.1659634114153 301.0923956728713
509.43615375573506 2365.114311164556 603.9166292830557
495.0604838066187 2281.7878749662145 582.6397631960656
383.4489152306207 1754.6997204092631 448.05121492487257
365.7224189335476 1661.6841637227421 424.3002946417208
255.35521018335646 1152.0364260445133 294.16504392361867
278.1356025740784 1246.0208947798521 318.16336962638655
500.2729378712685 2225.590976134775 568.2902488583281
491.9077350406299 2173.269725498607 554.9303561990553
349.11851137353364 1531.8499491811401 391.1479684131549
540.6299163744823 2308.9174123331163 589.5671149453182
405.5099790929683 1623.896593818843 414.65148327669044
519.0713214300953 2053.124631445184 524.252084166651
460.5256189092136 1531.8499491811401 391.1479684131549
716.5862192203751 1832.212684314697 467.8436484941656
665.8291832301652 1634.5546263558404 417.37294289246825
787.8880586945355 1595.7981444031232 407.47672610782166
-866.3327038730844 2005.5693775528378 508.38221037160883
-445.5225848898839 2085.0554524486 528.530756166907
-390.72554885640136 2107.350327114485 534.182177548515
-275.01923079012 1992.9679266547291 505.1879287211347
-269.2133481323208 1973.5810791191773 500.2736492588669
-255.2577367023443 2146.1240221855887 544.0107364730508
-219.76764202893892 1872.7694719343076 474.71939605507407
-244.1071934858278 2231.4261513420165 565.6335661070293
-83.85721902487008 1719.613376403448 435.89658830315807
-86.2286912651768 1828.1797226025385 463.416553291858
-52.34212912880331 1148.6707164814466 291.17105813936996
-53.31840932416186 1212.6473133487675 307.3881803648539
-89.20531327647355 2105.41164236093 533.6907496022883
-98.24782040470646 2409.7851486690934 610.8449371598934
-41.320305477441096 1148.6707164814466 291.17105813936996
-34.61839364774059 1007.146729471918 255.2968180648147
-77.54659741256485 2366.164741714102 599.7878083697908
-25.59088310890077 970.3117191543695 245.95968708650577
-23.05381530053685 930.5686817064883 235.88541418885669
-56.203442527318174 2425.294626697535 614.7763607297078
-18.1450042122 1081.7860924837926 274.2167939945459
-15.663750232809159 1032.3496312681355 261.6853813657629
-7.840956001090746 1093.4182010051238 277.1653616719066
-5.858813475358924 1051.7364788036873 266.5996608280307
2.9346671695790465 1206.831259088102 305.9138965261735
4.612098907019705 1143.8240045975585 289.942488273803
12.70353637683819 1055.6138483107977 267.5825167204843
18.503248705308994 1357.0793274886287 343.99956235874936
26.82379191844981 1239.7888998985402 314.2681716120289
27.366063280571534 1177.7509877847742 298.54247733277174
38.45281173684204 1231.0648185075418 312.05674585400834
42.52282249768465 1295.041415374863 328.2738680794922
49.55480277720587 1213.6166557255451 307.63389433796726
54.33359290581493 1280.5012797231989 324.58815848279136
61.00198139698177 1209.7392862184347 306.6510384455137
74.1310455381089 1424.93329386306 361.1995404766868
67.30828632570133 1121.5291299316739 284.291066892195
73.28078681349052 1189.3830963061052 301.49104501013244
160.25514418653478 2472.792403159637 626.816345412264
85.00569896298687 1221.371394739766 309.5996061228744
89.85444136839574 1262.0837745644246 319.91959299363685
99.92719591658422 1262.0837745644246 319.91959299363685
110.71016681181221 1370.650120763515 347.43955798233685
112.78074982605374 1270.807855955423 322.1310187516574
115.41996808825971 1277.593252592866 323.85101656345114
58.51208811023312 595.1762193414414 150.86837949162293
110.10797637140644 1102.142282396122 279.37678742992716
249.11027108526082 2454.3748980008627 622.1477799231095
124.84267879928082 1157.3947978724448 293.3824838973905
114.58922165085552 1046.8897669197993 265.37109096246377
270.5084911764557 2435.9573928420887 617.479214433955
274.7117464043644 2438.8654199724215 618.2163563532953
123.94028233729439 1055.6138483107977 267.5825167204843
119.38961052560946 1003.2693599648077 254.3139621723611
292.4667585633069 2425.294626697535 614.7763607297078
297.6241788607057 2435.9573928420887 617.479214433955
237.6817957255451 1896.0336889769699 480.61653140979547
136.22074594368945 1073.0620110927944 272.0053682365254
125.09180915954762 973.2197462847023 246.69682900584596
314.4485715892577 2416.5705453065366 612.5649349716872
316.75289432022447 2404.938436785206 609.6163672943266
132.41847122992957 970.3117191543695 245.95968708650577
134.35908977692483 973.2197462847023 246.69682900584596
334.61259484724724 2396.2143553942074 607.404941536306
334.7157169029978 2370.0421112212125 600.7706642622444
268.84014058765376 1882.4628957020836 477.176535786208
136.69570110783752 936.3847359671538 237.35969802753704
140.4677924159154 951.8942139955952 241.29112159735132
354.36027527523987 2375.8581654818777 602.2449481009247
360.6063038552746 2392.336985887097 606.4220856438524
290.7176173921917 1908.6351398750785 483.8108130602696
281.3564310451523 1828.1797226025385 463.416553291858
148.15326558556362 952.8635563723728 241.53683557046472
146.9202157683096 935.4153935903762 237.11398405442364
381.9946425411767 2407.8464639155386 610.3535092136667
378.65754588826024 2363.2567145837693 599.0506664504506
309.14586282985266 1910.5738246286337 484.3022410064964
303.77136035100744 1859.1986786594214 471.2794004314866
162.94916618571935 987.7598819363662 250.38253860254684
168.70700105146557 1012.9627837325836 256.77110190349504
398.95781617223076 2372.950138351545 601.5078061815846
411.5875811692993 2425.294626697535 614.7763607297078
320.0456536247802 1851.4439396452005 469.31368864657946
190.7362680161573 1093.4182010051238 277.1653616719066
191.43709405740765 1087.6021467444582 275.69107783322625
424.865570802497 2392.336985887097 606.4220856438524
427.5946939290675 2386.5209316264313 604.947801805172
347.9864729232273 1908.6351398750785 483.8108130602696
237.4414692770962 1291.1640458677525 327.29101218703863
252.9584826608988 1363.864724126072 345.7195601705431
455.0921408178369 2433.049365711756 616.7420725146148
451.24191695067265 2392.336985887097 606.4220856438524
363.00900029095857 1908.6351398750785 483.8108130602696
367.86978055804167 1918.3285636428545 486.2679527914035
231.2649777619566 1196.1684929435485 303.2110428219262
230.1222578347402 1180.659014915107 299.2796192521119
474.81120757723943 2416.5705453065366 612.5649349716872
475.1518387241617 2399.12238252454 608.1420834556461
380.23310998866623 1904.757770367968 482.827957167816
368.79171390344584 1833.0264344864263 464.645123157425
212.0732227036461 1045.9204245430217 265.1253769893504
209.5548733888219 1025.5642346306922 259.96538355396916
494.3780324862653 2401.0610672780954 608.633511401873
485.8753962760943 2341.931182294662 593.644959041956
392.0829174967528 1875.6774990646404 475.45653797441423
391.5516593488875 1859.1986786594214 471.2794004314866
215.12485099192887 1013.9321261093612 257.0168158766084
214.84802869973154 1005.2080447183629 254.8053901185879
510.0622530843984 2369.072768844435 600.524950289131
493.58896644498543 2276.015900673786 576.9364088702453
391.91824521914907 1794.2527394153226 454.8165642328893
390.0328304544948 1772.9272071262158 449.41085682439467
248.48274027093646 1121.5291299316739 284.291066892195
277.70304331657593 1244.635611782428 315.49674147759583
534.2488100122863 2377.796850235433 602.7363760471516
494.9780463605447 2187.805744387025 554.5764373169266
395.9326318107184 1738.0308815622222 440.5651537923125
335.7245857175035 1463.7069889341637 371.0280994012225
232.8003262114911 1008.1160718486956 255.54253203792808
521.7997514315188 2229.4874665884613 565.1421381608025
465.2103344187534 1974.5504214959549 500.51936323198026
447.32288607183546 1826.2410378489833 462.9251253456313
506.8232959126319 2005.5693775528378 508.38221037160883
572.0712671820797 1913.4818517589665 485.03938292583655
676.5658049074416 1770.9885223726606 448.9194288781679
688.0527721594705 1727.3681154176688 437.86230008806524
765.4043071713763 1550.9478028441472 393.14235698142784
-403.7810658752987 1992.876840261915 501.46475404327776
-404.19355896533324 2075.307269177858 522.2066051837539
-351.76720679038095 1914.325490353781 481.69899001529456
-261.38815393382697 1682.5505196371887 423.3777850438379
-327.16789139066685 2243.0774362656007 564.4223727990761
-247.792639685643 1817.3485151585542 457.2968122029696
-243.03672491804053 2044.2746371153853 514.39790828381
-209.6437703205665 1787.2856528480338 449.73213708114884
-87.05165862613819 1846.4416077171222 464.61746554666706
-49.95691818116163 1096.8095894580174 275.9886310573952
-47.05317657384068 1070.6258061553062 269.40004304806746
-70.3539142000917 1661.2155850942388 418.0093059251264
-71.99150666718006 1838.683449701504 462.6652913216811
-69.34343980543302 1846.4416077171222 464.61746554666706
-39.26300756759382 1091.9607406982561 274.76852216677895
-35.95115182474696 1046.3815623564994 263.29949859498623
-76.97476670653201 2349.7521089803504 591.2647683926335
-27.91732702789175 1058.9885691318789 266.47178171058846
-23.029800909598794 930.0091921222271 234.0168852201963
-55.866491433029694 2411.8173731052957 606.8821621925215
-18.242557998287097 1088.0816616904472 273.79243505428593
-14.766577684263282 973.6488309600792 244.99786523574252
-7.472542288273539 1042.5024833486905 262.3234114824932
-5.750816913601157 1032.8047858291677 259.8831937012607
2.9181670328826184 1200.5749529169104 302.0989613165829
4.963869162639853 1231.607584979383 309.9076582165269
14.698306551713609 1221.9098874598603 307.4674404352944
15.793844430603034 1158.8748535829627 291.60602485728316
41.825787095458026 2485.519874253668 625.4278173298885
25.02015931095436 1156.9353140790583 291.11798130103665
28.28952714436037 1218.0308084520514 306.4913533228014
42.60087095569822 1364.466040996844 343.3386418194121
38.671578843328476 1178.2702486220082 296.48646041974814
58.06461315827558 1422.6522261139803 357.97994850680703
59.31040194563598 1398.4079823151735 351.8794040537258
95.54382793052653 2023.9094723243877 509.27345094322175
71.56001663876707 1419.7429168581234 357.2478831724373
71.20614714272774 1369.3148897566055 344.55875071002833
115.97002998258678 1986.0884519982492 499.756601596415
72.02044811686972 1200.5749529169104 302.0989613165829
76.32668748788988 1239.3657429950013 311.8598324415129
92.02204236945562 1322.7659416628965 332.84570536011233
94.54730005737493 1328.58456017461 334.30983602885186
113.58851763175473 1435.2592328893597 361.15223162240926
101.079791622383 1251.9727497703807 315.0321155571151
118.11439321981067 1331.493869430467 335.0419013632216
116.47083274460198 1289.7937700965192 324.54896490392184
107.3039270555741 1091.9607406982561 274.76852216677895
101.77966857198606 1019.2280093018359 256.46688880753527
250.97958196623236 2473.882637230241 622.4995559924096
254.31813749390815 2468.064018718527 621.03542532367
115.01419319866741 1066.746727147497 268.42395593557444
111.40618771610953 1018.2582395498836 256.222867029412
270.4008475269625 2436.0616169041027 612.9827066456028
275.6944195830764 2448.668623679482 616.154989761205
114.03871708169787 971.7092914561747 244.509821679496
115.81368982387623 973.6488309600792 244.99786523574252
294.4539427741687 2442.8500051677684 614.6908590924655
299.63755372765036 2453.517472439243 617.3750986518213
129.45277753636972 1020.1977790537882 256.7109105856585
124.09506167620462 965.890672944461 243.0456910107565
317.22348878739797 2438.970926159959 613.7147719799725
318.6679662326805 2420.5453008728664 609.0783581956308
132.68304360001935 972.6790612081269 244.75384345761927
130.3443759389689 944.5557384015111 237.67721189204502
333.9357894369575 2392.42197806625 602.0017266300565
335.8109012527827 2378.8452015389184 598.5854217363311
263.5653456886834 1826.0764429261246 459.49300820607885
140.79940227981194 964.9209031925087 242.80166923263326
141.03996264978878 956.1929754249384 240.60547322952402
356.52894281058406 2391.452208314298 601.7577048519333
362.7979953292734 2407.9382940974865 605.9060750800286
295.6778612574188 1922.0836483693993 483.65116424028054
153.27759013277537 986.2558377354587 248.17014835134475
168.99631036562036 1076.4444246670198 270.864173716807
379.2265654213131 2391.452208314298 601.7577048519333
387.1998613205221 2417.6359916170095 608.3462928612611
310.71433499032884 1921.1138786174472 483.4071424621573
300.44539655154387 1839.6532194534564 462.9093130998043
179.57989560997333 1089.0514314423992 274.0364568324092
161.11922205680636 967.8302124483656 243.53373456700302
404.0099780600327 2404.0592150896778 604.9299879675356
399.08532051027987 2352.6614182362073 591.9968337270034
325.0935918048973 1898.8091743225448 477.79464156532254
326.74818040226245 1891.0510163069266 475.84246734033655
192.25809994181813 1102.6282079697312 277.4527617261347
195.70262645619124 1112.3259054892537 279.8929795073672
425.20987029261255 2395.331287322107 602.7337919644264
436.10490514049087 2435.0918471521504 612.7386848674795
344.6285536822211 1891.0510163069266 475.84246734033655
223.89375781684143 1218.0308084520514 306.4913533228014
228.32784149206927 1231.607584979383 309.9076582165269
447.4770532025583 2393.3917478182025 602.2457484081798
458.18972604472674 2430.242998392389 611.5185759768633
262.93740988656816 1360.586961989035 342.36255470691907
252.60546693353666 1296.582158360185 326.2571173507846
478.0489895783678 2434.122077400198 612.4946630893563
468.62450033360756 2367.2079645154913 595.657160398852
230.15546226688565 1135.6003795361082 285.74950218232516
216.6852849597081 1060.9281086357835 266.95982526683497
492.3821583139348 2392.42197806625 602.0017266300565
486.8809331061359 2347.812569476446 590.7767248363871
397.26774196711943 1887.1719372991176 474.86638022784354
214.09652952447223 1009.5303117823132 254.02667102630275
207.59664875326038 971.7092914561747 244.509821679496
512.3579506228306 2380.784741042823 599.0734652925776
497.7933017639376 2296.4147726229758 577.8435705958549
410.7625044436246 1881.353318787404 473.40224955910406
385.7678459771356 1754.3134812816565 441.4353966249584
232.375388913702 1049.2908716123563 264.03156392935597
270.9983748252879 1215.1214991961945 305.75928798843165
520.0921966201955 2315.810167662021 582.7240061583199
503.0924405631766 2224.6518109785075 559.7859590147344
403.66137810931025 1772.7391065687498 446.0718104093001
395.53247549101906 1725.2203887230885 434.11474328126087
266.3772963381485 1154.0260048232014 290.3859159666669
525.8834016601133 2247.926285025362 565.6424816896924
490.1037691029184 2081.1258876895718 523.6707358524934
390.9280642657518 1606.9084789849117 404.3440863502245
471.3040219119883 1865.8370027561677 469.49790110913204
501.2072694305046 1721.3413097152795 433.1386561687679
546.6198169467256 1774.6786460726544 446.5598539655466
732.4557288364284 1839.6532194534564 462.9093130998043
764.1050970560757 1877.4742397795949 472.42616244661104
931.8797439811507 1889.1114768030222 475.35442378409005
-411.05108993242084 2029.646209999895 506.9519328625365
-285.31907552301845 2069.4241710945394 516.8874152943549
-224.8204998055878 1891.8786374282004 472.54123761087294
-84.17127286277332 1786.1274725668293 446.12739407262416
-53.659374371798386 1221.4744638574894 305.09200930876364
-93.07064241877865 2284.807277509442 570.6844177300543
-72.86482135776293 1861.8026180639572 465.0290435770591
-71.56505211012389 1906.431550023802 476.1761702078797
-41.56439167013484 1156.4714542638026 288.85597704213365
-36.91740150307658 1074.975143728434 268.500354498896
-74.40152852938422 2272.1947532599206 567.5341428126485
-75.63493871217115 2428.3960151193774 606.5490860205206
-28.5820252904606 1084.6770854588349 270.9236428969005
-23.534103119298035 950.7902895793007 237.48226300443872
-55.439686713597624 2394.4392190629737 598.0675766275049
-52.82464047579025 2450.7104810992996 612.1226493359308
-16.746733278284946 999.2999982313058 249.5987049944611
-15.148979098397591 999.2999982313058 249.5987049944611
-33.47011983976532 2468.1739762140214 616.4845684523389
-7.354371852086888 1026.4654350764288 256.38391250887366
-5.615821211403946 1009.001939961707 252.0219933924656
-9.832766884172457 2478.846112117463 619.1501856901438
2.861595135637721 1177.8157260706848 294.1872115177435
5.276553834302205 1309.7621336041389 327.1439337306044
13.939239582519683 2476.9057237713823 618.6655280105429
15.036600908856224 1250.5802890486925 312.361874502777
14.643999689630261 1074.975143728434 268.500354498896
27.117406528972325 1254.461065740853 313.3311898619788
29.010279428293117 1249.6100948756525 312.1195456629766
36.57558785677573 1171.9945610324442 292.7332384789408
43.60499013609878 1329.166017064941 331.9905105266133
49.99018842460944 1225.3552405496498 306.0613246679654
51.74236175285025 1220.5042696844494 304.8496804689632
58.16695341539127 1154.5310659177223 288.37131936253274
60.01084638799293 1154.5310659177223 288.37131936253274
118.40494760429148 2028.676015826855 506.7096040227361
72.89307067078978 1215.653298819249 303.63803626996093
84.44908928628817 1371.8545606787054 342.652979477833
85.54541768656138 1230.2062114148503 307.27296886696763
97.44583042409737 1369.9141723326252 342.1683217982321
107.67884475496749 1361.1824247752643 339.98736224002806
110.63187107856481 1370.8843665056652 342.41065063803256
119.14671129602169 1343.7189296605425 335.62544312362
124.43988972186422 1378.645919889986 344.34928135643617
122.7419698468734 1249.6100948756525 312.1195456629766
125.50566172149757 1257.3716482599732 314.0581763813802
253.61863770512332 2462.352811175781 615.0305954135362
119.61476092661411 1109.9021339578776 277.22419273171215
114.90752504433011 1050.7202894024313 262.4421335038848
274.4913062077048 2473.9951412522623 617.9385414911416
273.94744504314406 2434.217180157618 608.0030590593232
129.40321489210626 1103.110774746597 275.527890853109
129.886668069407 1092.4386388431558 272.8622736153041
293.28501088542646 2434.217180157618 608.0030590593232
293.4789953111137 2404.1411607933746 600.4908650255094
142.61955243788262 1124.4550465534792 280.85912532871885
136.05603147632073 1059.4520369597922 264.62309306208886
315.8360301883278 2429.3662092924174 606.791414860321
315.3485082510901 2396.3796074090537 598.5522343071058
257.44331822558837 1910.3123267159624 477.14548556708144
136.25477059623122 999.2999982313058 249.5987049944611
143.05763642582934 1037.13757097987 259.04952974667856
334.7479559293052 2399.290189928174 599.2792208265071
338.54886212724483 2399.290189928174 599.2792208265071
272.6634590555259 1889.9382490821204 472.05657993127204
139.95036065802412 959.5220371366617 239.66322256264274
150.62381406716796 1021.6144642112282 255.17226830987138
357.83014333179057 2401.2305782742546 599.763878506108
363.9668974487395 2416.753685042896 603.6411399429152
155.23689069494458 999.2999982313058 249.5987049944611
174.62952071114105 1112.8127164769978 277.9511792511135
383.9938093499671 2422.574850081137 605.0951129817179
381.2978979309594 2381.8266948134524 594.9173017100991
167.26675940163142 1014.8231049999475 253.47596643126826
167.57690630758017 1007.0615516156267 251.5373357128647
399.77268099284396 2379.8863064673724 594.4326440304982
402.0463822453108 2371.1545589100115 592.2516844722941
320.61068732137727 1873.4449481404386 467.93698965466444
324.90498553845487 1881.2065015247592 469.87562037306805
188.8762512181274 1083.7068912857949 270.68131405710005
190.58398757765093 1083.7068912857949 270.68131405710005
420.04537794088037 2367.273782217851 591.2823691130923
424.989527231693 2374.0651414291315 592.9786709916955
341.82572871835316 1892.8488316012406 472.7835664506734
217.6546801706715 1184.6070852819655 295.8835133963466
229.5863414058051 1238.9379589722114 309.4539284251717
446.751806763008 2390.5584423708133 597.0982612683031
457.0927035561919 2425.485432600257 605.8220995011192
361.9028276135864 1904.4911616777217 475.6915125282788
229.39086935221627 1187.5176678010857 296.61049991574794
245.04808572385718 1258.3418424330134 314.30050522118063
470.62113675224975 2397.349801582094 598.7945631469062
470.5443057425941 2377.945918121292 593.9479863508973
374.4280243399843 1877.325724832599 468.90630501386624
388.2941842314969 1931.6565985228447 482.47672004269134
251.57898522768028 1241.8485414913316 310.18091494457303
216.6852849597081 1061.3924253058724 265.10775074168976
492.58174573116787 2394.4392190629737 598.0675766275049
488.28868466819415 2355.6314521413697 588.374423035487
393.5013053119865 1884.1170840438797 470.6026068924694
403.5962620087334 1918.0738801002833 479.08411628548504
228.0817014818825 1075.945337901474 268.74268333869645
206.35355504815104 966.3133963479424 241.35952444124587
519.0363434619062 2412.8729083507355 602.6718245837134
502.6282873807326 2319.7342677388856 579.4082559628704
416.90276868530765 1910.3123267159624 477.14548556708144
409.86500827421486 1864.7132005830777 465.75603009646045
204.88550926402192 925.565241080258 231.18171316962707
231.20292313506204 1037.13757097987 259.04952974667856
516.6074917852194 2301.300578451124 574.8040080066619
505.2855200774014 2235.327374684397 558.3256469002314
399.9074156214228 1757.0216473756261 438.8575288786107
385.08276984285834 1680.376307705458 419.7135505343754
251.60342948241924 1090.4982504970756 272.3776159357032
267.7255814332683 1152.5906775716421 287.88666168293184
528.8327046029871 2261.5226173564797 564.8685255748435
500.6092552999055 2126.6656273039052 531.1848168425813
392.65256854235355 1657.0916475524955 413.8976583791646
495.2070047639185 2036.4375692111757 508.6482347411397
579.8215279967133 2296.4496075859233 573.5923638076596
602.5005899045308 2017.0336857503737 503.8016579451307
678.0470655640534 1776.4255308364282 443.7041056746197
755.6176209018657 1934.567181041965 483.20370656209263
858.2095794159058 1740.5283464339445 434.7379386020031
-620.7566387034464 1728.666452610594 428.5712258408218
-706.4529007321238 2017.909912957566 500.28050450481106
-692.3260149782552 2144.0899459948355 531.5630757340681
-320.5061947136941 1927.6426585539807 477.9014343177272
-335.1213032821431 2137.295636523598 529.8786295909543
-304.1744569408626 1959.6729746326723 485.8423947066924
-286.8240156148805 1947.0549713289454 482.7141375837667
-294.21064163103637 2018.8805285963142 500.52113966811305
-299.2305541232969 2171.267183879786 538.3008603065235
-253.06717798628983 2130.5013270523605 528.1941834478405
-56.418984634797546 1197.7396982153134 296.94379151464017
-47.47938288338634 1081.265821565526 268.06757191840285
-77.18342447722917 1895.6123424752893 469.9604739287619
-68.6150423284852 1828.6398634016616 453.3566476609255
-45.713856945928505 1272.477102398927 315.4726990888924
-37.68373745485525 1097.7662874242458 272.1583696945365
-72.0506689601381 2201.356268680981 545.7605503688848
-30.678381349331595 1164.7387664978735 288.7621959623729
-22.88571456397044 924.9967037270612 229.3253106267845
-55.39475990102582 2393.53816515313 593.4063127026764
-16.502848813067203 985.1748733294514 244.24469075150708
-14.604792470591075 963.8213292769904 238.9507171588636
-33.28592892869742 2455.657566033017 608.8069631540029
-7.500347096788045 1047.294274209338 259.64534120283366
-5.362029291273191 963.8213292769904 238.9507171588636
-9.782737150515219 2467.3049536979956 611.6945851136267
2.654164845739764 1092.9132092305047 270.9551938780266
4.963869162639853 1232.6818612102495 305.60665739351134
13.966539307514825 2482.8348039179673 615.5447477264582
15.433221879299289 1284.1244900639056 318.36032104851614
15.516295700023399 1139.5027598904196 282.5056817165215
25.691278420720106 1189.0041574665793 294.77807504492233
28.109339073377182 1211.3283171577884 300.31268380086783
39.75475733108157 1274.4183336764233 315.9539694154964
38.958034982908686 1188.033541827831 294.53743988162034
52.83998538943278 1295.7718777288844 321.2479430081399
51.82462305929357 1222.9757048227673 303.2003057604916
63.739249793000184 1265.6827929276892 313.7882529457786
77.45937819492195 1490.8656211172781 369.61561083183733
77.0234840926781 1285.0951057026539 318.60095621181813
80.50733547235959 1308.3898810326114 324.37620013106556
80.48555465305026 1157.944457026636 287.07774981925905
95.72051472961972 1346.2438909437922 333.7609714998427
97.6247259645892 1234.623092487746 306.0879277201153
113.99858760820267 1413.2163700174199 350.36479776767914
122.84585106911116 1386.0391321324696 343.62701319522375
119.09799438545767 1320.03726869759 327.2638220906893
145.1366615503014 1478.2476178135512 366.4873537089116
116.9836723453465 1172.5036916078593 290.68727726878876
127.2475210207075 1181.2392323565934 292.85299373850654
118.9393680283417 1088.0601310367636 269.7520180615167
272.55372051682684 2457.5987973105134 609.2882334806069
121.5502493445642 1036.6175021831075 256.9983544065119
138.65344140268846 1166.67999777537 289.2434662889769
292.9343313188038 2432.3627907030595 603.0317192347554
296.4398407036794 2429.4509437868146 602.3098137448495
131.2985871020024 1035.6468865443592 256.7577192432099
138.04952644300676 1075.4421277330366 266.623760938591
317.22348878739797 2441.0983314517935 605.1974357044733
320.71070960596694 2438.1864845355485 604.4755302145672
141.01707325784707 1034.676270905611 256.51708407990793
148.67823579896762 1078.3539746492813 267.34566642849694
336.7783721601744 2414.8917092055913 598.7002862953199
343.4771917012767 2435.274637619304 603.7536247246613
149.28981849769005 1023.9994988793806 253.87009728358618
160.63679315995213 1090.00136231426 270.2332883881206
355.95063146782564 2389.6557025981374 592.4437720494684
367.91194210193737 2444.010178368038 605.9193411943792
166.38983235652313 1071.5596651780436 265.6612202853831
178.2834949893166 1136.590912974175 281.78377622661554
384.1475914121817 2424.5978655930735 601.1066379283396
383.78293514761737 2398.3912433468713 594.6094885191862
179.57989560997333 1090.00136231426 270.2332883881206
176.6176642586635 1061.8535087905614 263.2548686523633
399.60970802872134 2379.949546210655 590.0374204164486
399.7433342291756 2358.596002158194 584.7434468238051
334.39146777071664 1954.8198964389312 484.6392188901825
325.7428013856401 1886.8768017265552 467.79475745904415
201.55818393196765 1156.9738413878877 286.83711465595707
206.96363198897993 1177.3567698016006 291.89045308529865
422.4554743716887 2381.8907774881513 590.5186907430526
426.0315939106428 2380.920161849403 590.2780555797507
338.7963781583681 1860.670179480353 461.29760804989075
243.68054692326612 1326.8315781688277 328.94826823380316
263.2062676727476 1420.9812951274057 352.289879074095
456.7239453068251 2444.9807940067863 606.1599763576811
453.2531248463199 2406.1561684568574 596.534569825602
363.408499742785 1897.5535737527857 470.44174425536585
226.5797067376058 1173.4743072466076 290.9279124320907
264.13047327829787 1356.9206629700227 336.40795829616445
474.43029204769493 2417.8035561218358 599.4221917852258
474.19193601966845 2397.420627708123 594.3688533558842
257.0822755295358 1269.5652554826822 314.7507935989865
243.2262613624511 1191.916004382824 295.4999805348283
504.55699076515083 2453.71633475552 608.3256928273989
492.91415408638545 2378.978930571907 589.7967852531467
221.2947797966687 1044.3824272930933 258.9234357129277
224.7927783406063 1053.1179680418275 261.08915218264553
506.3056571124184 2354.7135396032013 583.7809061705973
502.41807061478505 2319.7713766082647 575.1180402917261
393.2315688125141 1789.8152378517325 443.73124112884636
207.8922148507057 939.5559383082847 232.93483807631415
232.06804165006696 1041.4705803768486 258.2015302230218
529.892928968566 2361.5078490744386 585.465352313711
514.9350699399906 2279.005519780839 565.011363433043
387.5414215436759 1703.43044600314 422.3147115949704
413.76387683461854 1806.3157037104522 447.82203890498
247.7980395347314 1074.4715120942883 266.383125775289
290.7121212532964 1252.0941739852142 310.4193606595509
569.8960763460761 2438.1864845355485 604.4755302145672
512.4850223051952 2178.0614933510237 539.9853064496374
421.1589611063184 1778.1678501867536 440.8436191692226
301.9767875408014 1266.6534085664375 314.0288881090805
213.57741988275413 890.054540732125 220.6624447479133
519.5073008528578 2137.295636523598 529.8786295909543
452.30896919684 1849.0227918153744 458.409986090267
425.49640647667553 1685.959364505672 417.9832786555348
455.46328202332614 1565.6030253008917 388.1445184060896
508.38629969580705 1651.987817149484 409.5610479399656
700.6576199542269 1801.4626255167111 446.6188630884701
876.387931711226 1778.1678501867536 440.8436191692226
-360.2325726016498 2298.4378278255335 565.5727642139811
-293.61245699626136 2131.4199544051735 524.4749545626061
-260.77374754998715 2033.3455054781018 500.3419384301126
-65.53657199765442 1676.004939090355 412.41174103647296
-71.01875400241302 1893.51658819594 465.93446988477535
-43.06377828239642 1199.2271725240953 295.0918309270244
-39.34968517611322 1146.7913285432846 282.1890302225229
-65.98290980167849 2016.8379249656243 496.2799456157325
-74.57731871419833 2396.512276752605 589.7057803464746
-32.36569232354483 1229.3292311056719 302.49899429442337
-24.014390938059222 971.0341477927898 238.94075378706427
-54.69839430616297 2364.468149875443 581.8207354715015
-52.26000655146469 2426.6143353341818 597.1129437138736
-16.746733278284946 1000.1651722265734 246.1089764006762
-14.545961483801182 960.352772167069 236.31240549540658
-33.12805100492495 2445.0639841422444 601.6528180358279
-29.61649319495067 2478.0791451671994 609.776803664588
-7.284859830800622 1017.6437868868436 250.40990996884338
-5.2270335890759805 939.9610550634204 231.2946496658782
-9.678829242150188 2442.150881698866 600.9359957744666
2.7178082301402737 1119.6023724050865 275.49868911648514
4.748898450871985 1179.8064895682396 290.3130158512831
14.674975906393428 1221.5609579233294 300.58746826412687
14.03603580359868 1031.2382649559427 253.75508052186225
43.06603673231125 2562.559116025172 630.5646492440626
23.426251425260702 1084.6451430845461 266.8968219801508
30.564401540523107 1317.6933385548157 324.2426028890462
39.66392391752997 1272.0547336085544 313.01238746105423
35.80701744752637 1092.4134162668884 268.80834801044733
48.604870455598096 1192.4299334895459 293.41924565051494
63.42346726780214 1497.3346558964818 368.4466423396531
65.98772026115816 1310.896099520266 322.5700176125368
68.12996089930961 1311.8671336680588 322.80895836632385
115.23389209695513 1976.0544907583271 486.24443395667583
84.6443877302467 1412.8546850385092 347.6587967601785
86.59913682115831 1407.9995142995451 346.4640929912432
87.36696837862539 1257.4892213916628 309.42827615424824
108.97093926320804 1533.262919364815 377.2874502297745
116.27473257574893 1471.1167339060764 361.9952419874024
128.17011532598062 1589.5828999367968 391.14601394942423
112.00651126889548 1264.2864604262122 311.1008614307577
119.53585465893362 1325.461611737158 326.1541289193427
118.64421774794828 1208.9375140020231 297.48123846489506
112.04479213871349 1123.4865089962577 276.4544521316334
200.9829129112078 1894.4876223437327 466.1734106385624
117.7327104924541 1093.3844504146812 269.0472887642344
115.43803070012112 1056.4851527985552 259.96754012032596
113.92490598680595 972.0051819405825 239.17969454085136
119.96637192911481 1009.8755137045014 248.49838393854685
293.98637001867183 2442.150881698866 600.9359957744666
300.9403257003793 2467.3977695414787 607.1484553729304
125.8842123761466 993.3679331920239 244.43639112416676
129.4525793991733 1008.9044795567086 248.2594431847598
316.84509098765153 2439.237779255488 600.2191735131055
317.1359087027157 2412.04882311729 593.5288324070676
158.2142773136821 1161.3568407601765 285.7731415293289
147.2061740583838 1068.1375625720686 262.8348291657707
340.1623992116231 2440.2088134032806 600.4581142668925
345.3937643134002 2449.9191548812087 602.8475218047632
149.99735318251322 1029.296196660357 253.27719901428813
164.3558996801291 1115.7182358139155 274.54292610133683
360.287966538514 2419.817096299632 595.4403584373642
368.05805486687063 2446.0350182900374 601.8917587896149
173.77488832162243 1119.6023724050865 275.49868911648514
167.01707429827528 1065.2244601286905 262.1180069044095
382.60977079003527 2415.9329597084607 594.4845954222159
387.66580579864547 2423.701232890803 596.3961214525125
180.8591824887621 1098.2396211536452 270.2419925331697
164.5095062884626 989.4837966008528 243.4806281090185
403.84700509591005 2406.222618230533 592.0951878843453
405.82996112896143 2395.5412426048124 589.4668395926876
321.93895531649434 1882.8352125702193 463.30612159311767
323.73204335239546 1876.0379735356698 461.6335363166082
193.1035621227408 1108.9209967793659 272.8703408248274
208.32860235659066 1185.6326944549962 291.7466603740055
428.6528651937673 2417.8750280040463 594.9624769297901
424.815849451868 2375.1495255011637 584.4490837631593
322.3779296984981 1786.7028319387332 439.65098696819825
244.21532500722356 1330.316782476122 327.34883268827804
263.0264819707853 1420.6229582208514 349.570322790475
452.91640149918584 2425.6433011863887 596.8740029600866
454.8986585791222 2415.9329597084607 594.4845954222159
262.187766522672 1358.476772762113 334.2781145481029
260.9185862641841 1340.9981581018426 329.9771809799358
473.0970876942891 2412.04882311729 593.5288324070676
475.1518387241617 2403.3095157871544 591.3783656229841
381.2732949133985 1898.371758934904 467.12917365371067
247.8446096657069 1224.4740603667078 301.30429052548806
215.89301700738739 1058.4272210941408 260.4454216279001
493.9788576517992 2403.3095157871544 591.3783656229841
495.93076457651017 2394.5702084570194 589.2278988389005
398.9722297421738 1911.966237004003 470.47434420672954
390.5309303099175 1857.5883247276067 457.093661994654
255.4350525162291 1206.024411558645 296.7644162035338
224.7927783406063 1053.5720503551768 259.2507178589647
510.8970521892828 2377.0915937967493 584.9269652707334
501.7874203169422 2317.858510781389 570.3515792897224
404.19877370251515 1853.7041881364355 456.13789897950574
396.64355639440146 1806.1235148945889 444.42980204393956
205.74456800307442 930.2507135854926 228.9052421280076
213.90055283496386 960.352772167069 236.31240549540658
537.0801326907044 2394.5702084570194 589.2278988389005
519.3212289684403 2299.408861973326 565.8117049677683
411.8317670535359 1810.978685633553 445.6245058128749
390.4187897483021 1705.1359635241388 419.5799636500849
225.41339278362648 977.8313868273393 240.61333906357373
258.2605356250215 1112.805133370537 273.82610383997564
549.0240862888154 2349.902637658551 578.2366241646955
524.360789310485 2229.4944033322454 548.6079706950995
432.88336449956194 1828.457300293823 449.92543938104205
390.3715253496797 1638.1346073264363 403.09305163877747
288.1082534296258 1201.169240819681 295.5697124345985
245.4349255535498 1016.6727527390509 250.1709692150563
549.2338766509778 2260.5674960616143 556.2540748162857
514.0414269349914 2102.2889299713897 517.3067319489942
522.2558080646357 2070.244803094228 509.42168707402107
496.40697445567724 1707.0780318197244 420.057845157659
518.7475016494036 1738.1511245490935 427.7039492788451
773.1394427081125 1988.6779346796334 489.35066375590765
878.7798201711365 1783.7897294953548 438.93416470683707
-245.12838555124327 1683.5223281918547 411.1466532509736
-289.4440172208498 2126.5033908897694 519.3306543372079
-273.7252612773982 2135.24643817986 521.4658648849625
-223.84964405241251 1768.0384519960621 431.78702187926825
-236.34975620587434 1991.4718827428173 486.35351365521973
-64.8637953222039 1730.1519137390037 422.53444283899825
-31.243032664799344 870.4189302134461 212.5720723097936
-38.91653876858614 1134.6532483139565 277.10287997526666
-72.88512671744179 2343.1366737442318 572.236426798239
-55.75728226293523 1889.469664358429 461.4427239314158
-51.49363173005461 1844.782978209078 450.5294255762255
-30.576120078167154 1161.8538398831265 283.74575723494775
-25.81547025841366 1044.3084263163555 255.0390376484689
-53.058565647292376 2294.564188799285 560.3741459773801
-52.07179524335618 2418.909750258349 590.7415848787791
-17.201984280024732 1027.7937814350735 251.00586216937683
-14.10472908287698 931.620261244079 227.51854614407597
-32.72019970184605 2415.995401161652 590.0298480295276
-7.277908628671995 1017.1078347471853 248.39616038878785
-5.410627744064187 973.3925982967331 237.72010765001474
-9.817373119970231 2478.168181891184 605.2135674802271
2.6164502475764992 1078.3091657778182 263.3426342230702
4.639458815790161 1153.1107925930362 281.6105466871931
13.944699527518711 2481.0825309878805 605.9253043294786
15.316568652698388 1275.513454654302 311.5034943557578
18.503248705308994 1360.0295784585094 332.14386298405253
25.628361004179567 1187.1115320544989 289.9141432617944
28.627379777453847 1234.7125673005467 301.53917846623625
41.57142560211348 1333.8004365882382 325.7382313407886
43.60499013609878 1330.8860874915413 325.0264944915371
56.718875702664555 1392.0874185221742 339.97296832581947
61.860502445379 1461.0603471439986 356.8174070914393
58.02031403703314 1153.1107925930362 281.6105466871931
74.08061625542992 1427.059607682536 348.51381051683796
75.39458865869398 1258.9988097730202 307.4703188766658
84.21019511574706 1369.7440754474987 334.51631914822434
98.97092093547757 1425.116708284738 348.0393192840036
104.62314371312438 1472.7177435307858 359.66435448844544
104.60888481897412 1324.0859395992488 323.36577517661686
104.9945782847526 1302.7140462234722 318.14637161543885
123.70611613262035 1396.944667016669 341.15919640790537
110.07807275185314 1221.1122715159618 298.2177398363957
141.99187505577746 1447.4600513594137 353.49596846159875
123.95620910765192 1243.4556145906372 303.6743890139909
125.88826237381416 1169.625437474318 285.64372216628516
125.30543589783368 1147.2820943996426 280.18707298869003
273.52251336226584 2468.4536849021947 602.8411113160553
119.72927182629357 1021.96508324168 249.58238847087375
125.73398596416841 1058.8801717998394 258.5977218947266
295.73976785178513 2457.767738214306 600.2314095354664
295.1370687309505 2420.8526496561467 591.2160761116135
236.22362519962152 1888.4982146595303 461.20547831499863
146.06506362706358 1153.1107925930362 281.6105466871931
172.06353431208692 1341.5720341794297 327.6361962721261
319.9446808409845 2434.452945440732 594.537514741454
254.95910134072997 1894.326912852924 462.6289520135017
152.65825754179693 1121.0529525293714 273.7814413454261
160.05325833984276 1161.8538398831265 283.74575723494775
343.887885832446 2440.2816436341254 595.9609884399571
275.8827914776394 1914.7273565298015 467.6111099582625
175.32709489918292 1203.626176935781 293.9473187408865
162.0672187446356 1100.6525088524936 268.79928340066533
362.4566340738582 2435.4243951396306 594.7747603578712
368.7886186915369 2451.9390400209127 598.8079358369632
195.32719450548367 1258.9988097730202 307.4703188766658
198.22810459102496 1264.8275079664138 308.89379257516885
387.06945059426 2445.1388921286202 597.147216522043
387.044546494481 2420.8526496561467 591.2160761116135
176.2217675531528 1070.5375681866267 261.44466929173274
172.4201694956605 1037.5082784240628 253.37831833354863
405.4767347371365 2416.966850860551 590.2670936459448
410.2715537315078 2422.795549053945 591.6905673444478
328.5802952920796 1922.498954120993 469.50907488959996
321.72128531915075 1865.1834218859558 455.5115835209863
208.99825112408726 1200.711827839084 293.2355818916349
213.27661993917962 1214.312123623669 296.55702052147547
424.865570802497 2397.537856882572 585.5221813176012
434.7154829018911 2431.538596344035 593.8257778922025
343.9281934772564 1906.95575893861 465.7131450269251
233.6980226893942 1273.5705552565041 311.0290031229235
225.27148455871085 1217.226472720366 297.268757370727
449.65279252120934 2409.1952532693595 588.3691287146073
457.0927035561919 2428.624247247338 593.1140410429509
298.5454696716344 1547.5193703460038 377.93226695256834
244.6702166633732 1258.0273600741211 307.2330732602486
478.4299051079123 2440.2816436341254 595.9609884399571
475.535799805959 2406.2809041726628 587.6573918653557
380.29817139699594 1894.326912852924 462.6289520135017
247.0584253368704 1221.1122715159618 298.2177398363957
229.75770617299943 1126.881650722765 275.20491504392925
492.18257089670175 2395.5949574847746 585.0476900847668
487.8864699361775 2356.736969528817 575.5578654280796
380.5331881441353 1824.3825345322005 445.5472676314647
403.18797039314535 1918.6131553253972 468.5600924239312
248.6481308310153 1174.4826859688128 286.82995024837106
210.08283616347907 985.0499946835204 240.5670550470209
510.4796526368406 2376.165963506796 580.3027777564232
501.9976370828898 2319.8218809706573 566.5425320042267
390.6478457208698 1792.3246944685357 437.7181622896978
394.72431337958983 1798.1533926619293 439.14163598820085
230.657271435597 1043.3369766174565 254.8017920320517
217.14474726623226 975.335497694531 238.19459888284908
528.58616465545 2357.708419227716 575.7951110444967
512.9612983771883 2272.2208457246097 554.9174967997849
422.65201187156447 1859.3547236925622 454.0881098224832
430.43893903913033 1880.7266170683388 459.3075133836612
218.02645935576186 946.192006727563 231.07723039033368
256.90838622384337 1107.4526567447863 270.46000271558563
542.4448720316354 2322.7362300673544 567.2542688534783
525.5026899840705 2235.30575716645 545.902163375932
424.37742478289505 1793.2961441674345 437.95540790611494
394.07392274481595 1654.3788372248869 404.0292847584582
281.8197143491085 1175.4541356677116 287.06719586478823
279.19101846635897 1156.996591388632 282.55952915286184
575.185649173146 2368.3943659156043 578.4048128250857
503.35696309569596 2059.4733616657427 502.9607068044224
386.1258818322182 1569.8627134206795 383.38891613016347
525.6852552095254 2084.7310538371153 509.1290928312691
484.54891643056953 1909.8701080353069 466.4248818761766
702.1676579282662 1806.8964399520196 441.2768465359555
-496.8476663302172 1996.205145304896 483.81919955522636
-410.2727022872817 2013.6986665393108 488.05909516963436
-394.1531961780288 1949.5557553464562 472.51281125013827
-313.2184895185017 1800.86082485393 436.47369852767014
-364.94100963676925 2218.761609898285 537.7600937607506
-303.1240842988767 2060.3480564977503 499.36548347472245
-305.5264355399224 2099.2225481297833 508.7874737289625
-259.82525986248055 1909.7094014236225 462.8552712395423
-283.6248786730018 2241.1144425867037 543.1777381569386
-228.3945692896766 1925.2591980764355 466.6240673412383
-58.818096263536944 1569.5575996433333 380.41285651494184
-35.05154005526766 1022.3991299224685 247.7983436865132
-61.91609645275217 1991.3458338508917 482.64145077344637
-53.320588693603874 1807.6638608895357 438.1225468221621
-53.445996914132515 1915.5405751684273 464.26856977767824
-33.107086539487014 1258.561666587069 305.0369344810215
-27.0882329781308 1096.2606640233314 265.7001251695693
-51.620907644994865 2233.3395442602973 541.2933401060907
-52.19726944876186 2425.7682778388607 587.9321918645788
-17.47838667393817 1044.7519626108876 253.21598808270122
-15.296056565372325 1010.7367824328587 244.97174661024118
-32.470226322539624 2398.556133696438 581.3367986866108
-29.187100464459615 2444.2336613640764 592.4076372353429
-7.104128575456332 993.2432611984439 240.73185099583316
-5.243233073339646 943.6782843676017 228.7188134216771
-9.782737150515219 2470.473943215699 598.767480656955
-5.839087756005844 2470.473943215699 598.767480656955
2.611735922806091 1076.8234182073147 260.9891300424493
4.1743403666924115 1037.9489265752818 251.56713978820923
13.791821067545914 2454.9241465628857 594.9986845552589
17.83679416476215 2472.4176677973005 599.2385801696669
14.278354935950363 1189.5594439402105 288.3129017797454
16.520757772597317 1214.827863501032 294.4371954450014
37.62850209643673 2476.3051169605037 600.180779195091
26.488232363566933 1227.4620732814428 297.49934227762947
28.830091357309932 1243.9837322250569 301.50368813568144
42.02559266987145 1348.944859631546 326.9430618221296
44.65532931455955 1363.5227939935585 330.4763081674696
54.42320592544575 1336.3106498511352 323.88091498950155
56.39012556689801 1332.423200687932 322.9387159640776
96.22226660637472 1975.7960371980785 478.87265467175035
62.95717310842349 1251.7586305514635 303.38808618652945
73.42503558060311 1415.0314954060023 342.9604452543377
86.97138120736689 1452.9341247472344 352.1468857522217
86.30051910798191 1404.341010207193 340.36939793442167
156.67277145391174 2485.0518775777114 602.3007270022949
97.21683508386037 1400.4535610439898 339.42719890899764
108.34982561319609 1525.8237965572962 369.8131174789218
108.44633473896583 1373.2414169015667 332.8318057310296
125.03828599608494 1552.0640784089185 376.17296090053384
120.86724142304006 1365.46651857516 330.9474076801816
130.04450122235633 1443.2155018392261 349.7913881886617
138.46590231949304 1412.1159085335996 342.2537959852697
126.57091039351646 1270.2240140766792 307.86353155729347
201.49798957166706 1900.962640806415 460.73532343233825
124.11077029710748 1153.60053918058 279.5975607945734
124.45662684856808 1139.9944671093685 276.29986420558936
274.4913062077048 2478.2488415421053 600.6518787078029
275.47604776558484 2452.0085596904833 594.2920352861909
123.82647124240248 1057.3861723912983 256.27813491532925
