# .PCD v.7 - Point Cloud Data file format
VERSION .7
FIELDS x y z
SIZE 4 4 4
TYPE F F F
WIDTH 877
HEIGHT 1
VIEWPOINT 0 0 0 1 0 0 0
POINTS 877
DATA ascii
334.0883135674338 702.2464167715615 521.991350629014
533.0988343540921 1116.3711608334195 829.8171071142384
440.84454945592154 919.7421641373824 683.6595289381145
326.37586648738045 670.9462907668862 498.7254504295495
479.20757057115884 981.5398488132797 729.5947677934677
419.9978921439497 857.1419121280317 637.1277285391852
331.14365173097184 668.5385887665266 496.9357657988214
355.46842924624787 715.087494106813 531.5363353262303
426.4010547504697 854.734210127672 635.3380439084572
372.466490860081 743.9799181111287 553.0125508949669
393.87369076292293 778.4903134496168 578.6646972687356
419.6967883694645 826.6443534568095 614.4583898832966
421.97333252553943 828.249488123716 615.6515129704486
424.25452419762723 829.8546227906224 616.8446360576006
216.80657729837313 419.7427153960305 312.0016872902564
408.05229465898583 787.3185541176022 585.2268742480718
342.97679706411213 657.3026460981816 488.5839041887572
356.292897089411 669.3411560999798 497.5323273423974
339.7576317498054 630.0153567607723 468.3008117071726
347.6146361187791 640.4487320956641 476.05611177366086
423.0962161329683 769.6620727816314 572.1025202893994
320.4253976902148 581.0587494201263 431.9105575490357
290.39000553101357 520.0636320776821 386.5718802372584
359.11712254128105 637.2384627618512 473.6698655993568
270.1105169059802 473.5147267373958 351.9713107098495
264.0360647056188 461.4762167355976 343.02288755620924
340.82237081761593 593.8998267553777 441.4555422462519
298.16511166368167 510.4328240762436 379.41314171434624
253.48459953379904 430.1760907309223 319.7569873567446
190.32888329675953 320.22436604783206 238.02805588683043
387.0587001761277 973.9720559113846 721.3337884112672
324.9958696968094 814.0542018467266 602.896970017008
462.0089192333935 1146.747626885764 849.2931650683814
423.98580498621305 1038.2606404599908 768.9465797255423
413.02323412721455 1006.9199554925453 745.7353439598331
552.947657067338 1313.0943394052827 972.4912625940682
549.8946530543604 1300.2366224955613 962.9687043312132
431.07589676025395 1002.0983116513999 742.1643846112626
341.89644136730396 765.8377634352719 567.1873765313017
314.80644505855645 696.7275350455202 516.003625868456
285.80221111351364 630.0281285763413 466.60535487989563
316.3642083312333 683.8698181357989 506.48106760560097
270.1936100833043 581.8116901648865 430.8957613941893
440.9447633891186 945.8458001713694 700.5031922112719
451.28691721991373 964.3287682290937 714.1918697141259
383.42393632353696 810.0361653124387 599.9211705598658
538.8475636965157 1129.8718734417548 836.7948073483842
410.8394230531625 858.2526037238933 635.630764045572
344.6300721703517 711.9960738758142 527.3116638055964
293.19171738280227 603.5090874500412 446.96507846275716
477.8065907817405 976.3828778319573 723.1192680855526
376.8597621139991 761.819726900984 564.2115770741594
470.84285482305387 945.0421928645118 699.9080323198434
462.4691812081481 924.9520101930724 685.0290350341324
334.4711104708249 657.3507770094989 486.8407911884625
485.80015149902385 951.4710513193725 704.6693114512709
367.70461618607897 710.388859262099 526.1213440227394
369.7860725313426 711.9960738758142 527.3116638055964
355.5400497038232 682.2626035220839 505.2907478227441
331.20663516018277 629.2245212694836 466.01019498846716
367.0451939295414 692.7094985112323 513.0278264113138
348.8466894144499 647.7074893272079 479.69887249132125
342.5979736461354 626.0100920420533 463.6295554227534
355.83151898195126 646.1002747134928 478.5085527084644
425.7645202935919 770.6594072764174 570.7583358798723
272.0165638230328 487.7896352625499 361.26205409706205
356.214452799623 634.8497724174866 470.17631422846625
251.79793948862562 441.98401877166793 327.3379402856411
297.35273302371166 512.7014617751348 379.71201073134364
302.85324235021756 519.1303202299954 384.47328986277114
193.19097176738748 325.46095927731915 241.0397560285175
414.1440759258627 1088.6844581488804 803.3524448117893
373.8668839156376 968.7923781310066 714.8827372900179
519.0234709006144 1326.0546836876235 978.51059057637
387.23594740774826 971.2063126280108 716.6640065689797
332.60756312934393 830.3934669694341 612.7566319628725
334.1227783103448 830.3934669694341 612.7566319628725
405.05233700812437 980.0574057836927 723.1953272585065
401.6336461877523 959.1366401429899 707.7576601741705
456.1648970176081 1084.6612339872067 800.3836626801861
491.09874762889416 1162.7117827236748 857.9780360332855
508.85623097922524 1184.4371931967123 874.0094595439422
379.2072807190349 850.5095877778023 627.6005426208878
372.1990529934916 821.5423738137522 606.2253112733457
378.82153533526747 829.5888221370994 612.1628755365518
277.7016023777101 601.0696897540381 443.53605046149784
288.48019419115224 621.9904553947409 458.9737175458338
488.8979747007644 1050.0615061968135 774.8521363483998
470.46661120176003 1006.6106852507386 742.7892893270867
382.28279365590737 808.6680564963967 596.725208452216
424.2562254708698 890.7418293945384 657.2883639369185
392.3747298822338 820.7377289814175 605.6315548470251
355.521315986119 735.4453767539369 542.6933736570402
299.8285472037179 617.9672312330673 456.00493541423066
480.38305929700795 986.4945644423705 727.9453786690714
419.60463569063137 858.5560361011495 633.538106884094
368.23497215969337 742.6871802449493 548.0371814939257
469.2413485141319 943.0437434962954 695.8825316477582
470.5051357035112 942.2390986639607 695.2887752214377
358.95293055095243 711.3060317838952 524.8806808674218
382.20930824325995 754.7568527299702 556.9435278887348
362.29859271422134 710.5013869515604 524.2869244411012
445.0723295464983 860.9699705981536 635.3193761630557
357.21515005578465 686.3620419815188 506.4742316514828
285.2761763825937 528.6516548439131 390.09797209264264
302.1371089793261 552.7909998139547 407.910664882261
396.1839437824875 722.5710594365813 533.1932708359103
313.7643238231829 561.6420929696367 414.44198557178777
368.6151824573602 655.7855383527993 483.9114874512995
345.5210020151233 609.1161380773854 449.47361472470396
295.54726214894276 511.7541133648839 377.6290871399098
251.7526178669765 432.0942749637463 318.8472009341691
249.00169694463276 420.02460247872546 309.9408545393599
372.4006891218366 957.1477291883064 703.7131692029562
405.959498780881 1038.5213997674468 763.5406356082581
452.8459049915421 1142.454107734864 839.9539342843367
430.5473416911335 1081.2224348238276 794.9352466922284
526.3063474711421 1315.675287680559 967.309432077801
467.1891173467322 1162.596105402968 854.7627130975302
356.9865622983028 872.5513389822692 641.5162981875435
540.4023379623991 1309.2298484267658 962.570622857579
555.316465879744 1322.1207269343524 972.048241298023
499.1769004986421 1163.4017853096923 855.3550642500579
293.94043675527365 665.4916029541591 489.28205198791403
379.2072807190349 851.6036614074409 626.1151682218222
325.6994016349771 722.6948763315747 531.3389838173837
302.2066747616107 667.9086426743316 491.05910544549727
385.38519899319556 848.3809417805443 623.7457636117113
370.64055899675634 803.2628670039911 590.5740990701578
322.06779765454644 695.3017595029531 511.1990446314404
487.77407131064774 1048.9952385548609 771.2412005911187
379.2397465422285 803.2628670039911 590.5740990701578
369.2153133939525 779.0924698022661 572.8035644943255
532.3323371084356 1119.089390439863 822.7757508610322
458.5398804113948 960.370448815203 706.0825738130673
319.73580059145496 662.2688833272624 486.91264737780307
385.5603020785121 792.789028216577 582.8735340872971
335.05449822719584 686.4392805289874 504.6831819536353
399.575824076027 804.0685469107152 591.1664502226855
529.1676035196621 1061.0804371557233 780.1264678790349
421.89151000275973 837.1014230864059 615.4528474763229
358.9833694694158 709.8039978239881 521.8613653769398
539.9603035242528 1060.2747572489993 779.5341167265071
339.92618237985846 660.6575235138141 485.72794507274756
502.92575327344 970.8442876026171 713.7831387959278
383.20710874004993 722.6948763315747 531.3389838173837
338.89200721031546 630.8473669650201 463.8109524292212
332.6051006226283 617.1508085507093 453.74098283624954
511.61845266559163 931.3659721731331 684.7579323220685
262.3846000975107 476.15682487398067 350.0795311438949
258.12444936090094 464.0716262731182 341.19426385597876
302.6082898104396 530.9430585312238 390.3594095157813
339.9012292748656 594.5917711624327 437.1551505654728
295.95452268033995 511.60674076984384 376.1429818551155
194.06546525007911 328.71740194345875 241.6792702313183
188.24793495299525 312.60380380897544 229.8322471807635
534.9356395251937 1595.6773781545594 1168.8873790257944
379.38592739759736 980.9624326774237 718.5879943859283
519.3384123271317 1330.2689568133815 974.4667785710491
455.571702832645 1145.5317881594917 839.140585549357
429.6181023754026 1075.347798321551 787.7284510826006
421.26392116087806 1030.9786093435425 755.2265269944213
476.4410736762033 1160.8593261700764 850.3685229616372
440.04491771913126 1053.566560095983 771.7729610756762
436.87602525944516 1041.46587219289 762.9087999607182
453.6134468437537 1072.1209482140594 785.3646747852785
569.006356108563 1327.8488192327627 972.6939463480575
481.49110716550524 1118.9102747726865 819.6394310964494
293.5845766623496 665.5378346701272 487.5288613226898
429.0746525449061 964.8281821399662 706.7691128993175
375.479945723111 830.9139026790679 608.6723965604491
371.1116731045587 818.0065022491018 599.2172913711605
304.60043917840613 668.7646847776186 489.89263762001195
312.2748942399953 677.6385225732204 496.3930224376478
382.15228829461824 826.0736275178306 605.1267321144659
433.07743965830167 932.5596810650509 683.1313499260963
398.26070444657387 854.3085659583815 625.8097747160346
381.9024127666975 809.9393769803729 593.3078506278553
477.77393579777885 1001.9369583761187 733.9525403185221
327.15666999572346 676.0250975194747 495.2111342889867
374.5890739705869 771.2171756904746 564.9425350599896
499.29943166158534 1013.2309337523391 742.2257573591496
418.9021893474302 847.0481532165255 620.4912780470597
423.5984187098563 853.5018534315085 625.218830641704
514.3010877032402 1032.5920343972882 756.4084151430824
456.8122702147302 907.5515927319916 664.8120836218498
436.2844436092544 860.7622661733644 630.5373273106788
440.25638729599035 865.6025413346017 634.082991756662
366.04079439338176 709.9070236481357 520.0307854108692
492.90897478500636 952.727494236873 697.9049517843596
315.7564163447381 608.2612452621526 445.5718320452219
340.91334757476017 643.7565964445594 471.5733713157654
365.1708741822851 678.4452351000933 496.98396651197834
429.6767910812251 788.1581387548051 577.3523606209309
290.29959355108775 530.816842682356 388.8412009094908
273.51228697866406 498.5483416074407 365.20343793626944
422.2127828980249 767.1836130561102 561.9878146883369
349.54352517622004 629.2357709608475 460.9363779778158
348.9999828695041 624.3954957996102 457.3907135318326
315.697420067776 563.0853437572712 412.4789638827121
351.14367197777426 618.7485081115001 453.2541050115189
332.91503810708457 584.8665819828391 428.4344538896365
293.84415213734997 514.6825921448983 377.0223194228801
273.2418084018527 474.34696580125427 347.47511570635345
251.12000438889422 428.36435176950005 313.7913034695131
173.6333672180964 293.64335978172886 215.10364305631404
192.55953728647165 321.0715856954068 235.19574158355218
376.88996734892896 975.7531690794915 712.1585167863467
397.2780717979396 1004.8319059063638 733.3817838428935
524.2282834003817 1319.8515548641467 963.3005102888167
439.28692688497654 1100.9532859729693 803.5364721687008
536.3659953804962 1280.272163072015 934.4132856840724
408.852452178242 971.7144556313149 709.2108408062708
440.30199129303406 1041.9880696295895 760.5004028595921
449.3974865985005 1050.065496525943 766.395754819744
368.31519617640225 836.0136837725776 610.1689278757192
377.318844463613 852.9762802549197 622.5491669920382
322.79461321459826 718.0832510858179 524.0967892575019
379.9238288425476 835.2059410829422 609.579392679704
320.2018196843579 693.0432277071224 505.82119818103104
442.8179357059797 954.7518591489727 696.8306016899518
439.6286718583993 944.2512041837133 689.1666441417544
335.99738964496197 710.8135668790998 518.7909724933652
378.2663907314801 797.2420346700812 581.8712384669902
420.82496385398576 867.5156486683559 633.1608005203116
348.0319611866999 714.8522803272765 521.7386484734411
331.14365173097184 672.8496604662388 491.08281828065134
405.0121065663017 814.2046311524234 594.2514775833092
484.94222129388544 957.9828299075141 699.1887424740125
518.6244860597687 1020.9867596990706 745.1724877631972
370.61630432329906 719.6987364650886 525.2758596495322
280.86999456751136 536.3411459178662 391.4513701540846
272.04183927629913 517.7630640562534 377.8920606457353
351.71616030835406 667.1954616387914 486.956071908545
281.95840776859865 533.1101751593249 389.09322937002383
338.2498347063021 629.2315552259304 459.2479176958312
377.67154074559085 700.3129119138404 511.12701494516773
354.86173968772573 635.6934967430132 463.9641992639527
294.3047229087251 516.1475786769827 376.7129902537049
251.48387889919852 434.5655670238133 317.16993545617095
252.69024400428367 435.37330971344863 317.75947065218617
193.42388285321607 330.36676006085435 241.11989517021175
192.92115145019355 323.9048185437716 236.40361360209025
366.7575146092953 973.7595518156733 708.1019243355713
433.8405334550689 1119.3382223529002 813.964338272783
378.43610537022386 958.392914370077 696.9275584199768
424.45166397717554 1070.0032284486176 778.0887424385057
338.33542178079387 833.8422740215607 606.3563820514735
478.45618925051025 1148.4539564603456 835.1368210602253
484.25220150756473 1157.3504307709538 841.6061908008328
449.9755999035681 1070.8119988404912 778.6768669603791
530.9804149348437 1242.2713219176694 903.3592655975395
302.4610942719464 673.7057364306112 489.90772672054067
378.03175117948166 838.6948963728016 609.8851291827139
345.12653623037363 762.6704795366943 554.6014241266145
338.40410673499645 744.8775309154777 541.6626846453997
502.38481538216485 1084.5610955023403 788.6749838322269
443.4186566122822 935.7473433976196 680.4600718075217
415.4555963458946 873.4720232233614 635.17448362327
380.02661457159553 790.1686728603927 574.59765787031
360.0913796851144 743.2599901317307 540.4864356016529
423.9304566771327 871.8544824396145 633.9982345795232
350.2820211876607 710.1004040649178 516.3733302048436
383.160384409577 773.993265022923 562.835167432842
390.21919260120507 777.2283465904169 565.1876655203356
366.31787645062974 727.084582294261 528.7239451641849
439.14666582599745 868.6194008721205 631.6457364920296
497.6989727772939 981.0384853425346 713.395045032432
514.8638030680295 1004.4928267068656 730.4506561667605
366.04079439338176 711.7179448486648 517.5495792485904
317.01274160870923 612.2391866482265 445.2102630581624
382.8122666921653 731.9372046455019 532.2526922954253
317.8772817752699 605.7690235132386 440.5052668831752
341.34055728350046 646.2075431069127 469.9114929768451
337.3651096108547 632.4584464450635 459.9133761049973
495.7211226856775 920.3807059520234 669.2857058919271
507.1926875041246 926.8508690870112 673.9907020669143
463.9456972959369 845.1650595077895 614.590125357701
478.6057498566705 863.7667785208796 628.1169893607893
342.68732168065003 614.6654978238469 446.9746366237826
354.1932596614738 627.6058240938227 456.38462897375695
251.48387889919852 435.1184708279337 316.4109927678882
276.13089743696304 476.36576081348136 346.4053433834315
338.5214743370277 2227.747779386526 1614.0448666125737
342.7565408345772 2227.747779386526 1614.0448666125737
368.92903872010265 990.3800560486084 717.5488447354336
514.7154305875889 1329.6844252099877 963.3811962842044
322.75009369693015 814.654404239493 590.2323285395308
420.91616031678603 1057.5930933765187 766.2459454002259
406.96931427917 1017.9131074841379 737.4970546463123
445.0990323943127 1069.74002783337 775.0466262432607
504.21787578355793 1206.5954893805613 874.2009637414523
492.2630930125114 1153.1489777704155 835.4779680320993
486.3511471801535 1134.5236782699103 821.983590739446
397.59291503935333 886.726215350144 642.449701541537
297.83215112211815 661.6030300831668 479.34374991729294
366.35383114167973 810.6054260872093 587.2987682585192
425.4852938101258 937.7433400689195 679.412561082283
311.5313825870429 678.6087383227587 491.6647030975416
297.43688844805735 645.4071174740318 467.60950879324656
392.2422831507282 847.8560250882199 614.2875228438259
372.65165033350326 790.3605353257905 572.6309668534614
476.7612867983397 1007.3857642882001 729.8697979156823
325.5703954927589 677.7989426923018 491.07799104133926
434.53899898889216 898.0633541765385 650.6636703283694
372.6234712861903 756.3491188466069 547.989060492964
489.2601773756563 989.5702604181515 716.9621326792313
416.66424058457824 839.7580687836523 608.4204022818027
367.07403757699205 732.0552499329043 530.3876988068945
450.1036876642138 888.3458066110575 643.6231256539417
371.43153586872336 725.5768848892502 525.694002357276
475.37961243024745 922.3572230902411 668.2650320144389
358.9548706294703 682.6577164750423 494.59826337855316
387.0169663781761 712.6201548019422 516.3066094580389
386.9190631372401 710.1907679105719 514.5464732894319
401.7902928735147 732.865045563361 530.9744108630969
342.3734015828617 618.6838616689589 448.24801093857013
349.7258509089345 630.0210004953534 456.46197972540256
197.63618741419867 350.6415079877738 254.04632033560324
238.38953692202458 415.425158424314 300.9832848317886
278.0061497115774 480.2088088608542 347.9202493279739
192.4400513218888 323.918252182701 234.68482248092675
176.58021769824205 296.38520074717144 214.73661257004798
532.8905622570587 1346.769366157334 972.1796512888825
539.6796039556715 1321.633995687209 954.035419386441
576.1471017849934 1368.6614630184104 987.9826919781058
464.2621726936817 1088.9291142379889 786.0549498380309
362.70440946730776 819.7374046869745 591.7360791409153
303.1872913770411 677.0333658888463 488.7236657593118
325.1729238689466 723.2500148177855 522.085640547672
292.0582989521083 647.033085005149 467.0676470370429
373.6774989679603 824.602315100547 595.2478659607426
383.27187507673136 832.7104991231679 601.1008439937883
441.13296158246567 951.0899858534333 686.5543232762548
394.074601221413 840.0078647435267 606.3685242235293
378.7606937815935 804.3318550439947 580.6154208781285
453.3831208058166 959.1981698760542 692.4073013093005
467.0028647814038 984.333540346179 710.5515332117419
331.45108929161 688.3848235205156 496.91783500557574
450.6040115754968 932.4411626014052 673.0924738002498
417.80549576140623 852.1701407774581 615.1479912730979
493.66431972519166 999.7390899891587 721.6721914745287
476.1303038502654 960.8198066805784 693.5778969159096
383.72230698037333 766.2233901376765 553.106424122814
323.53325239354837 643.7898113961006 464.72645582382467
566.719998915114 1123.7943055352587 811.2227553801272
495.23714768523797 978.6578115303444 706.45444858861
318.62187330151187 621.086896132762 448.3381173312968
373.5423644645052 725.6824700245719 523.8415339575857
493.3170536526545 955.1440778647437 689.4808122927776
384.0840320515611 733.7906540471928 529.6945119906313
286.0889103014285 535.9509638952425 386.8818479843175
408.44980049020285 745.9529300811241 538.4739790401999
412.20900422042797 743.5204748743379 536.7180856302862
224.9133252831577 392.43610669485224 283.2841367994095
249.34751123461714 433.7878452102189 313.1343247679423
279.3541066782055 477.57203893237187 344.7404061463888
232.85246209948548 392.43610669485224 283.2841367994095
-434.68210441761084 1334.6628296619956 959.9016257505947
-394.6002434233958 1239.677701273642 891.5874589544758
380.4709399137672 1049.7074444969346 754.9591253622378
359.63428421297306 982.3248320504956 706.4969386607175
437.19749219564255 1111.4071860141557 799.3341396913407
521.3408571148226 1319.2378942826904 948.807872168319
443.55446345462445 1112.2190247183298 799.918021458829
431.74368316453723 1058.6376702428481 761.381824804608
444.4251504376218 1070.8152508054577 770.1400513169309
449.7352730982205 1078.9336378471971 775.9788689918129
476.015645420104 1117.9018956475475 804.0051938312463
435.2029853756446 988.8195416838873 711.1679928006231
308.5319407931599 698.1812855896085 502.13832003984885
293.0205319057152 655.1538342683884 471.19258636297445
420.5200319498402 932.8026710958839 670.8801508439376
416.6669457518849 920.6250905332744 662.1219243316147
373.56878963175086 812.6505428781372 584.4656492556845
428.9564605612071 929.555316279188 668.5446237739848
505.06527485528676 1090.2993797056326 784.1532137366477
378.4789847638088 807.7795106530934 580.9623586507553
444.0510956330577 944.1684129543194 679.0544955887723
474.4617950613702 1005.0563157673665 722.845628150387
478.9279791209619 1010.7391866965843 726.9328005228044
374.58099266371187 781.8006721195267 562.2781420911331
362.6832296253306 754.198156177612 542.4261619965343
377.9194516388911 780.1769947111787 561.1103785561567
327.96340057389165 669.7669309435197 481.70245817776197
379.80465167500336 772.870446373613 555.8554426487628
488.4594242211953 990.4432190922353 712.3357563355995
434.7451381991453 878.4094779162283 631.7600724222284
388.5949711959972 776.9296398944829 558.7748514862038
385.46908912379945 767.9994141485693 552.3521520438337
444.4622213713773 882.4686714370981 634.6794812596694
449.6933834822045 889.7752197746638 639.9344171670632
320.0280643868911 626.7394796222997 450.7567245008876
451.72761671728705 881.6568327329242 634.0955994921812
465.3628339418138 905.200155153969 651.0281707493389
417.51876272639777 809.4031880614414 582.1301221857317
348.73551488201207 664.8958987184759 478.1991675728328
324.2521689338884 616.1855764680381 443.166261523541
281.80249386956365 526.8833190089022 378.9392670998394
499.6688867296306 916.5658970124045 659.2025154941737
422.2127828980249 772.0586076694391 555.2715608812747
350.43979062538983 634.8578666640393 456.59554217576954
475.7041110172181 856.4898329035312 615.9952647000471
341.930156978852 613.7500603555162 441.4146162210764
200.52272272003276 355.5853524281959 255.74021415982997
371.4872632119054 656.7775116767364 472.3603498979508
254.18923332621335 444.07577118315794 319.3833268160434
178.0449993000542 298.7566431360185 214.86849043565624
429.1385045520154 1112.8005937924715 797.3931517483222
546.1084335811075 1409.4932283682583 1009.9924946176704
534.2079304380513 1341.2132795891732 961.065522560067
529.4157587270668 1299.7575964018715 931.3598609536649
507.47936475730523 1240.419069486714 888.8399923797953
493.95547425440003 1191.6476775016533 853.8921551957928
380.534630069837 865.6922077348299 620.3241100160433
341.5376832966142 773.8394194962987 554.5056833195054
416.47403977181574 932.3464434477464 668.0861541675132
415.76218998696123 923.4050215838186 661.6790506837795
429.52703667015294 950.229287175602 680.9003611349808
353.911546805328 773.8394194962987 554.5056833195054
354.53581433582747 772.21370643013 553.3407554133719
512.1253114298429 1111.174880726303 796.2282238421889
415.4149544701348 884.3879079957699 633.7207809365775
408.54303193491165 866.5050642679142 620.90657396911
426.6113484699974 901.4578951905412 645.9525239509784
384.9361296131066 801.4765416211665 574.3094577237733
441.98376091926997 916.9021693191438 657.0193390592458
430.2225599302256 889.265047194276 637.2155646549778
324.7831494168115 664.1037875299118 475.87304965549987
381.558878100655 774.6522760293831 555.0881472725721
353.98379552074584 716.12660564731 513.1507426517691
375.2822738721134 748.6408669706839 536.4493007744375
318.7844320123307 625.0866739418631 447.91477990829793
356.0734838577456 681.9866312577674 488.6872566229674
422.08319223541736 803.1022546873352 575.4743856299068
289.9842207291333 544.6138771665127 390.2508485546939
560.9997258543548 1050.2106407449767 752.5434273621859
424.8609553034916 782.7808413602265 560.9127868032391
472.6717192446815 868.130777334083 622.0715018752434
468.2986971912179 849.435077073143 608.6748309547091
266.557813972037 474.7082153212589 340.15894859095704
383.19488178413036 676.2966355261769 484.61000895150045
226.7721130954152 396.6739881451615 284.24240909655316
176.97247043382905 301.56977377429286 216.0941265877484
523.4561066588446 1286.7314515964604 918.6311400515802
454.8112919819476 1093.8438146398753 780.9236256984971
463.5117086635196 1105.238021042374 789.058246799523
515.4243480910494 1213.4829818661115 866.3371472592701
448.7395771772398 1026.2924481107757 732.6969434567
394.6338777586929 895.2590744820407 639.1488007949008
428.0931934533311 959.554953467569 685.0513055792619
408.4424331209936 908.2810246563249 648.4455106246448
353.53979097885184 773.9921634840189 552.5731905054097
505.7565255525149 1098.7270459552317 784.409891884651
505.81741971732 1094.657686525768 781.504670062856
429.5421174438434 915.6058716293599 653.6749099038758
450.4615771491135 953.043978380427 680.4029506643899
379.248668584755 793.5250887454451 566.5182552500257
420.4331342787027 873.2845335629361 623.4606029572078
342.1331143869253 708.0685407267049 505.50859699233064
389.5807667423198 797.594448174909 569.4234770718207
386.76377360465136 786.2002417724103 561.2888559707948
483.3626628960922 979.0878787289954 698.996370323878
361.4282051298204 721.904362786882 515.3863511864337
498.43555460138816 992.1098289032797 708.2930801536219
476.773459494819 945.7191314073921 675.1735513851589
488.74752320225986 959.554953467569 685.0513055792619
373.9439479086934 731.6708254175951 522.3588835587417
464.52810240111097 905.8394089986466 646.7023775315679
456.88362099749247 887.9342275090058 633.9194015156698
319.78571670638337 615.2871457349298 439.2695394554046
354.8002771216631 680.3968966063509 485.7530886041246
396.023400002259 754.4592382225925 538.6281257607938
562.7365671108698 1054.7779641170225 753.033496209265
395.81280652313467 732.4846973034878 522.9399279231006
460.59692350658906 849.6822488720459 606.6103163907968
489.93220337440306 900.9561776832901 643.2161113454139
359.3707833940501 648.6558930565332 463.0923583941236
359.5694111087134 647.0281492847475 461.9302696654056
398.3937172395105 703.9991812972411 502.6033751705356
478.2144996861107 1171.8042841700153 833.4978821813512
446.4467963076944 1079.7223063458068 768.0004825384495
453.1114432811174 1029.1994512564181 732.063856185707
458.5934718673089 1029.1994512564181 732.063856185707
413.56626292717095 920.8197782420843 654.9739964290173
300.9261274874724 667.3906180356346 474.7112416596152
287.7390096925671 630.7208038578525 448.6282064035924
305.64719151688706 667.3906180356346 474.7112416596152
436.823784292024 950.1556295843101 675.8404246338356
429.85078865196783 931.4132801156659 662.5090955029794
391.7923158861538 839.3313022914574 597.0116958600777
373.7970959800202 797.7721795566378 567.4509225699185
462.7713725963993 980.3063656860421 697.2864758443432
404.14294016365176 846.6652651270139 602.2283029112823
342.38233840841224 714.6539340869982 508.3293759896002
394.43622267825987 817.3294137847881 581.361874706464
448.4154131483028 919.1900087230719 653.8147504176385
379.4056972089582 774.9554062904622 551.2214784106154
490.9968196666872 995.7891761166612 708.2993129524417
438.539779406141 880.0755402667709 625.9928461445475
388.728870004339 777.400060568981 552.9603474276836
466.542221329109 929.7835105966534 661.3498494916007
386.0962352707613 766.8065586953995 545.4252483537215
452.6821843400066 889.8541573808461 632.9483222128202
384.8112402639931 751.3237482647803 534.4124112456229
350.6644962296188 675.5394656306974 480.50747171650914
435.8611059855837 836.8866480129386 595.2728268430095
549.8188951487673 1048.7566854845686 745.9748083222524
424.6576872179249 796.9572947971315 566.8712995642292
414.2625550738834 774.9554062904622 551.2214784106154
404.5149357580889 744.8046701887303 529.7754272001079
483.9242201460012 888.2243878618336 631.7890762014415
404.66385030016244 735.8409378341612 523.3995741375245
425.2028215063855 768.436328214412 546.5844943651002
362.28314251330744 652.7226923645218 464.2780275572061
428.64445529844807 747.249324467249 531.514296217176
353.408433041198 605.4593763131581 430.6598932272211
278.5766111411217 475.89269955166134 338.49983532260717
542.7302249566986 1331.5408861700282 943.6222064245501
501.70511675634486 1214.8678795999829 860.9396233861244
499.1418568998308 1203.44534748823 852.8448250466981
460.28660469491183 1046.7934785270504 741.8304478202805
391.1553220979593 875.4554968507599 620.4084727288862
502.27840815064076 1115.3286711975666 790.3992378568381
410.5151534414844 897.4846659234258 636.0198695263512
506.5057944792594 1103.0902439349743 781.7262396360243
454.67156909906305 986.417237364929 699.0436565975987
444.6652594863241 953.7814313313498 675.915661342095
462.3782259773283 988.0490276666079 700.2000563603739
495.15722069409554 1054.1365348846057 747.0342467527688
396.6062220672383 841.1879005155018 596.1240777106073
385.8612094728994 809.3679896327623 573.5742823364913
342.38233840841224 715.5400472862223 507.0812959769181
497.2317310341787 1035.3709464152976 733.7356494808541
411.346250170947 853.426327778094 604.7970759314212
344.6597191485625 707.3810957778275 501.2992971630422
382.59733293731955 782.4434496550595 554.4936862507006
492.20221284099165 999.4715597783606 708.2948546998001
440.8853640929715 882.7985532083153 625.6122716613745
547.9111100622315 1093.2995021249005 774.7878410593731
484.5616593779783 947.254270124634 671.2900622909942
497.0860294445679 968.4675440464605 686.3232592070716
412.4220552760897 795.4977720684911 563.7448843529021
464.1290735303946 889.325714415031 630.2378707124752
557.5086699060928 1064.7431718455189 754.5508452108074
364.05308304561555 669.034023688372 474.1239027378254
411.2896988380149 728.594369699654 516.3324940791196
330.44371115017486 578.46966194519 409.9437159038027
330.4816029400248 576.837871643511 408.7873161410275
274.2930368089617 473.2191874868973 335.3559312048033
308.28551670769707 530.3318480456608 375.82992290193476
362.8096276204318 613.5531534312875 434.80631080346916
179.49645309869595 302.6971009614464 214.51215599479661
555.348322255851 1414.0591913460014 998.3975177102018
481.5400525351101 1182.8756262674813 835.1701939020058
469.02414485638343 1132.2276367449786 799.4101441631078
475.6699550457975 1124.058606176833 793.6423942052211
315.5326421636512 709.8887563718516 501.21747134036127
363.0854620778821 813.6354445873006 574.4678958055233
467.366475892033 1043.1852035521918 736.5416696221419
351.2641976532645 780.9593223147183 551.3968959739763
348.3352094081852 765.4381642352416 540.4381710539914
388.86980898729706 851.2129852007704 600.9995456118025
458.92721763098575 1000.7062445978346 706.5493698411307
458.80836584024564 996.6217293137619 703.6654948621873
386.77881330721186 827.5227965531482 584.2730707339309
502.05569590500403 1070.1430044270721 755.5752444831683
400.2532102294491 840.5932454621811 593.5014706665497
337.3071156041826 705.8042410877789 498.33359636141785
405.4474033711724 842.2270515758102 594.6550206581271
339.49181101830726 697.6352105196332 492.56584640353105
532.9012242937795 1087.297968620178 767.6875193947305
422.2894087313324 858.5651127121014 606.1905205739007
401.5887424376606 807.9171231895988 570.4304708350027
448.1422213643326 895.3257502687566 632.1453953843911
388.8423891125698 766.2550672920562 541.0149460497801
393.0778985247111 771.9733886897582 545.0523710203008
479.97063590411284 939.4385153367427 663.2912451569798
453.5334202935695 884.7060105301673 624.6473204391384
327.6385334185693 630.6491598608394 445.2702967488595
422.40003756160684 810.3678323600424 572.1607958223686
356.7201067981513 682.1140524401567 481.6071214835462
553.6181505141659 1041.5513974385626 735.3881196305646
411.6489111932911 771.9733886897582 545.0523710203008
405.0484386753411 752.3677153262088 531.2097711213725
408.53711797615085 756.4522306102815 534.0936461003159
435.4952918883583 803.832607905526 567.5465958560592
493.2475308093645 907.579296120975 640.7970203212213
358.506179667918 653.5224454516471 461.4199966309425
413.55756148614364 751.5508122693942 530.6329961255839
357.30796827155166 645.3534148835015 455.6522466730557
334.7518107311236 595.5223284178135 420.4689719299463
395.63029261125956 701.7197258037061 495.4497213824745
418.82817006260575 731.9451389058447 516.7903962266555
303.79086848752473 529.3531808158342 373.75019727106337
277.14556690580775 474.6206760092587 335.10627255322197
179.49645309869595 303.07103407820136 213.98352343759956
542.3283382082147 1339.7340810037433 942.420602595813
460.261376419857 1117.2629759774807 785.9258505164106
499.1418568998308 1206.414999682858 848.6388210188181
351.94563190189547 808.9114811432859 569.019521347533
373.7457493455864 855.5322641818776 601.8143774818195
443.78373344318464 1011.7527827848783 711.705912949341
362.3723554422599 816.2726574125371 574.1976565266309
354.33641479889695 795.0070370791444 559.2385993425704
320.2393628860837 715.6699150661022 503.4298090789599
355.39857011123274 781.9205014893643 550.0330256908408
419.84504329242725 920.1470336564172 647.2668973872342
497.889201821698 1087.0003624261142 764.637961446786
418.94468815248655 911.1500404384433 640.9380655016702
420.32088257689315 903.7888641691919 635.7599303225722
395.9423784793472 848.1710879126263 596.6362423027217
476.37803817551145 1016.6602336310458 715.1580030687396
501.624164476895 1066.5526505670825 750.2542526159585
329.4601254269615 692.768477783987 487.32005518843323
503.50100423870737 1051.0123895542188 739.3226339045298
442.80676643641135 920.9649421307784 647.8422457404673
400.71164579210034 824.4517421561497 579.9511400589619
344.69665866302824 706.6729218481283 497.10097719339586
496.4669557658051 1014.206508207962 713.4319580090404
384.6541439036646 772.1055997970292 543.1288454520436
549.546665614656 1099.268989541533 773.2681867452825
472.2601134927166 941.4126539898099 662.2259545712948
463.7903247143417 911.9679489128046 641.5134138549032
490.80440312471234 958.5887319513963 674.3082699891897
413.2680492356304 799.0965794509507 562.1153411087358
549.8188951487673 1052.6482065029413 740.473330610996
543.6313132892044 1024.0214099002972 720.3361382478375
526.6492419393534 988.8513455027629 695.5961590588144
443.75013531315875 825.269650630511 580.5264884121949
443.8319013866174 822.8159252074272 578.8004433524957
426.64376156542414 788.4637692842543 554.6358125167055
358.9543123925029 655.144687963369 460.85403093971075
462.1056230519083 840.8099116433749 591.4581071236238
476.15501538785054 863.7113489254903 607.5678610141505
271.02614577684795 484.20181682186575 340.60622511399345
370.5688768998858 660.0521388095366 464.30612105910933
306.27956296447917 543.9091354502377 382.6066549000096
322.05444908994474 565.1747557836304 397.56571208407007
354.0807924594398 814.8168434148155 571.0503582763223
365.17032106232244 836.9274512260719 586.5461971441221
359.1044684693337 809.9033750123141 567.6068385279224
491.88766139302453 1100.6169221603136 771.3484236415852
342.0784184259302 762.4065137881339 534.3194809600564
356.77498790005376 782.8792987985564 548.6674799117228
455.9301419240079 996.6151743073673 698.4605889671199
545.681097405079 1188.240442004922 832.7578591547174
332.8332780586258 716.5474753647875 502.1799633083237
421.90581313373065 904.8970974606746 634.1815536636544
407.3932860664269 870.5028186431647 610.076915424855
423.9185807159036 902.4403632594239 632.4597937894545
404.92088615049227 852.4867678339929 597.4506763473885
433.36861155677207 902.4403632594239 632.4597937894545
341.47946799148235 703.4448929581171 492.9972439792572
452.02515569322094 924.5509710706801 647.9556326572542
469.29974252920675 956.4885156869392 670.3385110218538
563.0399989221587 1127.6409983740714 790.2877822577848
582.6319384532212 1162.854188591998 814.966340454651
314.8782742679432 619.9159301155934 434.45740825645834
420.7046965142137 825.4626916202352 578.5113177311889
460.2338217014154 899.9836290581732 630.7380339152545
322.74669556477585 624.8293985180948 437.90092800485826
328.722609876573 632.1996011218469 443.06620762745814
519.9142155369462 996.6151743073673 698.4605889671199
507.3419039672188 963.0398068902745 674.9298706863871
558.0129685064612 1049.0255039340489 735.1914662833859
445.15545576450995 826.2816030206521 579.0852376892556
583.7584247975046 1080.144137149891 757.0004246899188
450.86764583761095 821.3681346181507 575.6417179408556
386.4250456319961 701.8070701572833 491.84940406312387
397.4725756967602 706.7205385597847 495.2929238115238
280.67695965088274 494.6224858518076 346.64765467226
429.5793396066235 752.5795769831311 527.4324414632565
335.67015715596864 586.3405626985004 410.9266899757254
303.6140166057817 525.7411190676498 368.45661307879294
669.5042170074927 2254.7575377975927 1574.3469902613392
489.5752415359094 1191.3318917890551 831.8277006726275
488.6514178734615 1183.9526853017176 826.6752923408632
439.8480090290792 1009.311465101395 704.7349618224395
467.1030080380165 1067.5252051681694 745.381738661914
455.68868344693004 1028.9893490676286 718.4747173738111
318.97568204633217 717.4228529355976 500.9285878104261
439.9173876446544 985.5340219755295 688.1327571978653
501.1761146433607 1118.359738747606 780.8761071696242
433.09553784475537 955.1972841942528 666.9506340561674
420.9646300745404 924.8605464129761 645.7685109144693
532.5185623194982 1160.9951540077786 810.6455775309296
428.39667179732646 919.9410754214177 642.3335720266264
471.23435696640826 1004.3919941098367 701.3000229345965
340.3513692427288 717.4228529355976 500.9285878104261
336.5263120958396 706.7639991205544 493.48622022009977
408.2001985444005 851.0684815396004 594.2444275968255
503.6722770025706 1038.8282910507453 725.344595149497
530.4989648303965 1086.3831773024765 758.5490043986453
502.2471559601956 1024.8897899079966 715.6122683006088
464.90666577668446 932.2397529003136 650.9209192462337
403.89274017724284 796.1343888005317 555.8876100159129
398.5843106855894 783.0157994897094 546.7277729816651
500.3226251359758 963.3964025135168 672.6755322025722
502.3986174785939 964.2163143454432 673.2480220172127
541.0260514044319 1021.610142580291 713.3223090420468
564.9826855213742 1063.4256460085373 742.5192895887117
397.94868295301086 739.5604723976103 516.3858128057193
312.2763524592603 550.9807510545389 384.7131554384072
337.9606774054285 592.7962544827852 413.9101359850721
426.1510794061111 745.2998552210951 520.3932415082027
338.63978296814724 585.4170479954477 408.7577276533077
670.4463914478611 2274.7409611489015 1582.4015165789533
553.9819692440416 1443.980278116535 1004.4908941401584
501.7705234015893 1283.9028737772942 893.1345983145013
466.97507778280277 1168.1545967935356 812.6154305636416
458.89320925310477 1137.780935457372 791.4862872531322
357.6520742591443 808.5961193546258 562.4920584013962
321.8920311393272 724.8633232387153 504.2441498156679
470.6603664817184 1055.689958873146 734.380494522026
396.4582314517494 885.7616373437983 616.1715035686361
461.7207364834216 1019.5699291760866 709.2539457203393
533.8541103054324 1169.7964163252202 813.7575464182636
477.2359149600588 1041.7344928538275 724.6725097577379
466.72735106049583 1007.2562826884526 700.6880768106734
342.4882483085578 736.356059960507 512.2389607980228
494.3907234484391 1058.973597936515 736.6647262312703
492.39181789143066 1050.7645002780923 730.9541469581596
406.4082260925395 854.5670662417924 594.4713023308158
377.9194516388911 788.8942849744116 548.7866681459308
511.45962546991 1052.406319809777 732.0962628127818
519.6887972451734 1065.540876063253 741.2331896497587
519.1226604004581 1060.6154174681997 737.8068420858924
461.278879079052 932.553493996807 648.7218054253667
416.84448009899245 839.7906904566316 584.1922596392167
536.8711100833656 1077.854522550887 749.7990585594247
435.7430412938879 871.8061713244798 606.463518804348
454.34036083942055 899.7171033631166 625.8794883329242
419.69904720786616 828.29795373484 576.1974486568618
406.514260322266 799.566111930361 556.2104212009746
463.16524731734796 907.9262010215392 631.5900676060348
324.0156865040869 628.816880635171 437.43037232027365
320.423695247435 619.786873210906 431.14873511985195
539.717461342315 1017.1071998785598 707.540771938406
597.0357202819058 1107.4072741212083 770.3571439426229
457.09537907659546 837.3279611591049 582.4790858572834
490.4253256319377 895.6125545339054 623.0241986963689
480.21315472354246 874.2689006220066 608.1766925862812
402.98911358221835 731.4306013654534 508.8126132341564
381.57933643942283 686.2805642441291 477.404427232048
357.55307407384834 641.1305271228049 445.9962412299396
306.6420530815506 538.5168063925224 374.6140003160568
332.38846567539355 582.0250239821621 404.8800704635431
490.5783488852477 1286.2816366300167 891.4620301888384
410.0145325493805 1050.3948444812534 727.9798559625146
457.4762458842221 1161.352046363076 804.8791365219353
475.6524555830572 1186.0092023368143 821.9678655351398
557.0084721743198 1352.8559577591102 937.6015985244908
450.5672943831591 1036.422456096135 718.2962428550321
433.02099132249305 992.0395753434059 687.5365306312639
314.08024795346176 710.9479972427888 492.7250198807318
321.8920311393272 725.7422908270319 502.9782572886545
546.7858378877818 1227.9263674921694 851.0187048575876
357.5105275278519 799.7137587482468 554.2444443282682
460.60546900399305 1018.3405417153934 705.7645082453488
409.768762253409 902.4519086388233 625.4474818832873
464.9213690449415 1019.9843521136427 706.903756846229
480.0406821828409 1037.2443612952595 718.8658671554722
470.3963455029467 1012.5872053215212 701.7771381422676
479.69734133641725 1024.9157833083902 710.3215026488699
405.6988321373328 857.2471226869696 594.1181453590789
445.90205667210034 935.3281166038078 648.2324539008933
500.6154650742022 1046.2853184856303 725.131734460314
499.2695918064185 1024.9157833083902 710.3215026488699
530.3729966939666 1084.914862844487 751.904076581001
416.02953487885753 839.1652083062282 581.5864107493956
585.5288877679966 1176.9682451464435 815.7019982302982
579.3495049971467 1160.5301411639512 804.3095122214951
430.0979334122236 849.8499758948482 588.9915266551175
492.65810832538216 950.9443153871754 659.0553156092562
403.2859650508441 775.8785079736331 537.7253396155038
402.0787508832295 761.0842143893901 527.4721022075811
437.7853499992143 826.0147251202344 572.4724219423531
482.5923186226636 893.4109514484526 619.1816145784455
455.8123558119018 833.4118719123559 577.5990406463145
348.2596096929182 627.1136669320784 434.6233412358362
382.96709211214966 685.4689360699259 475.06666656708705
373.52289558525206 666.5651164900598 461.96530765696355
297.87074691426466 526.8412326388759 365.12917658213763
430.8292354016622 748.755636402521 518.9277377009788
299.2740939116259 518.6221806476298 359.4329335777361
678.7555480061417 2294.2399829304322 1584.1107602448042
472.6858082509383 1180.0359166148635 814.7829376581956
352.3014919948195 814.6691474537761 562.5070490108882
473.9194113811212 1087.0484280671092 750.577587619579
363.461651099902 823.7210268699291 568.7571273332313
426.15151121389977 961.9679124984488 664.2128689835639
361.9619770220992 813.8462493250349 561.9388600724933
417.40180809007165 934.8122742499895 645.4626340165343
321.56878990189995 711.8068813611276 491.48343171153357
323.5605800306973 713.45267761861 492.6198095883233
442.4433012426075 971.8426900433429 671.0311362443019
423.36392969057204 915.8856172889422 632.3942884334531
572.1901938825733 1228.5869062105935 848.3060850234909
409.30069862225173 875.5636089806239 604.5530304521061
483.88240381480534 1023.6852721540378 706.8270393631766
383.99298377737995 806.4401661663642 556.8251596269398
339.0942796236722 701.9321038162333 484.66516445079554
391.7732856563585 808.0859624238466 557.9615375037295
518.3190649509219 1061.5385860761326 732.9637305293392
470.6308646278947 950.447338696072 656.2582238460362
465.72444355289673 937.2809686362131 647.1672008317188
516.1626609677128 1035.2058459564144 714.7816845007044
305.9335641418726 607.2988190109967 419.32343653538936
312.7984970270717 618.8193928133734 427.2780816729171
532.5587229683896 1050.0180122737559 725.0090853918114
429.2444651901281 843.4705819597176 582.3936618547075
328.48733790929094 636.9231516456795 439.7782383176035
536.575394177818 1033.560049698932 713.6453066239147
286.02694075702897 545.5814593554076 376.7092661557766
578.4865122377678 1092.8087149682976 754.5549101883429
454.6223866325736 842.6476838309765 581.8254729163126
447.76568175802043 814.6691474537761 562.5070490108882
303.9887851280862 546.4043574841488 377.27745509417144
369.43407768617845 654.2040123492444 451.71020602389507
330.44371115017486 583.4347732775022 402.8459573219391
435.3940066733321 755.4204821844105 521.5974454464599
365.24517888930023 1976.5086354499763 1359.6376774684027
512.5653579065057 1322.341125426099 909.6367121037042
480.9264952846018 1202.053396882666 826.8909426537722
554.6513644539364 1289.3855833594052 886.966638281805
436.98953293465786 1007.6156986891709 693.1375071045671
506.5663958138858 1163.3306349543004 800.2536059130407
374.35460767632264 849.4290967690395 584.3211527594511
429.0678603068948 969.7168253124728 667.066922209383
433.6955943085819 976.3079337258116 671.6009369737629
424.54515383580315 940.8807260041154 647.2306076152213
321.6946020605087 710.191931537257 488.5400908619271
536.476551549038 1179.8084059876473 811.5886428239903
472.72304578785963 1035.627909445861 712.4070698531814
418.41897813084387 906.2774068340867 623.4270301022271
549.961773758535 1182.2800716426495 813.2888983606327
502.39352669235035 1075.9984484775612 740.1779102850079
342.2962342098302 725.0219254672694 498.74162408178177
406.798627846711 858.4918708373802 590.5554230604733
520.2782877401174 1090.0045538559061 749.8126916593151
333.5288400987819 691.2424948489079 475.5047984143351
437.6530492515532 903.8057411790846 621.7267745655847
506.07599361933677 1041.3951293075324 716.3743327720138
461.66558575861177 946.6479458657869 651.1978705340537
424.7338974618736 861.7874250440497 592.8224304426633
449.77777691675715 906.2774068340867 623.4270301022271
423.0236116515993 849.4290967690395 584.3211527594511
591.0726918556767 1170.7456319193066 805.354372522968
610.1887562537504 1204.525062537668 828.5911981904147
423.8003890462533 833.7752142873597 573.552867694049
318.9397227468427 621.2119679571831 427.33089154279935
439.68072619383133 853.5485395273762 587.1549119871885
504.1548835412726 975.4840451741442 671.0341851282154
491.7183747600864 948.2957229691216 652.3313742251486
402.9482231325718 767.0402416023043 527.6459682047032
523.2234285251528 992.7857047591586 682.9359738847126
568.2112733643222 1064.4640087542182 732.2433844473433
459.2733691286966 857.6679822857129 589.988671214926
450.98546995349295 839.5424341490312 577.5201306128814
393.46053218554 723.3741483639346 497.6081203906868
410.7738816461476 750.5624705689572 516.3109312937536
392.58647653127446 715.1352628472612 491.940601935212
393.06934154436465 705.248600227253 485.13957978864227
341.62939389714836 603.9103083721686 415.4291027863023
214.57065722390604 367.4542940436388 252.77132311417574
217.58928465001958 371.57373680197554 255.60508234191315
365.24517888930023 1978.8786392617687 1356.1859500354255
579.8456846820405 2211.493802359651 1515.6042234451756
464.27525590797916 1182.8728506466764 810.6588796793666
482.90426017268106 1208.4440210581456 828.1835834939135
555.667939399271 1342.898884834581 920.3296067768541
464.85967485526567 1073.1642808168242 735.4722471846973
537.4195898932018 1235.6649443993872 846.8389133610119
424.0991093753102 963.455710986972 660.285614690028
314.6011584068396 711.8683891967097 487.8651416759368
489.32574648993585 1102.859833552724 755.8235161306228
