# .PCD v.7 - Point Cloud Data file format
VERSION .7
FIELDS x y z
SIZE 4 4 4
TYPE F F F
WIDTH 850
HEIGHT 1
VIEWPOINT 0 0 0 1 0 0 0
POINTS 850
DATA ascii
-730.631301330424 2953.0577442922604 2023.8206340670379
-672.6318012501484 2845.8238038570667 1950.3299406511958
-653.7228306709183 2925.8368209510186 2005.1653041999396
-619.8424314185506 2919.23780923193 2000.6427999897337
-580.1150155926874 3052.042920078593 2091.658197220123
-476.2585711958036 2807.8794864723054 1924.325541442513
-509.86021999527975 3073.489708165632 2106.3563359032914
-281.19447253347727 2798.8058453585586 1918.1070981534804
-277.499890263608 3046.2687848243904 2087.701006036193
-226.30262896201972 2902.7402799342076 1989.3365394642196
-208.61083558685732 2811.17899233185 1926.586793547616
-99.30242969604505 2857.372074365472 1958.2443230190556
-72.07764817582316 3338.275053394072 2287.821817337794
-38.204805881634286 3134.5305665672036 2148.1894998476937
-2.852084176567827 3155.1524781893563 2162.3223255045864
32.65804263208054 3146.078837075609 2156.1038822155538
65.49447026315956 3023.1722438075794 2071.872241300473
66.96493551378731 2844.174050927294 1949.1993145986444
98.8673021091065 3000.9005792556545 2056.608789591029
362.46736885506414 3242.5893834672834 2222.2455062898116
408.76483774047796 3273.1098126680695 2243.1620882620127
450.6503155168171 3311.0541300528303 2269.1664874706953
474.37781866888764 3261.561542159664 2235.247705894153
483.3835293436699 3281.3585773169307 2248.81521852477
502.20405551268914 3168.350501627534 2171.367333924998
544.4635802941515 3244.239136397056 2223.3761323423632
606.2738789859485 3352.297953297136 2297.432138784481
589.750989831969 2929.9612032754494 2007.991869331318
1497.2579851635044 3348.173570972705 2294.6055736531025
-1935.8521777211565 3058.9923493974966 2088.583684300819
-1727.990756145231 3062.295796859049 2090.839174240669
-1640.548659962562 3014.39580866654 2058.134570112848
-1446.298330282898 2716.259675261438 1854.576603041413
-1410.791320346256 2692.309681165183 1838.2243009775027
-1522.5930158422007 2973.102715397135 2029.940945864727
-1466.4661404068822 2911.988937358416 1988.2143819775076
-1534.8543043098862 3058.1664875321085 2088.0198118158564
-1503.8255260858793 3058.9923493974966 2088.583684300819
-1406.0277556396084 2974.754439127911 2031.0686908346518
-1440.9397422607933 3059.8182112628847 2089.1475567857815
-1394.186247723072 3016.0475323973155 2059.262315082773
-1431.9247160398024 3109.36992318617 2122.979905883527
-1367.5574363244514 3026.783736647361 2066.5926573872844
-1186.4664530403438 2636.151074318793 1799.880972000058
-1285.54795952342 2912.814799223804 1988.77825446247
-1358.5051737871756 3090.375100282244 2110.0108387293913
-1301.530702195567 3021.002703589644 2062.6455499925473
-1261.1444671650486 2939.242378916223 2006.8221739812675
-1221.0602825030078 2905.382042435311 1983.703402097808
-1096.3857157458374 2822.795855896502 1927.3161536015657
-1219.4005623848625 3153.9664639171274 2153.4290200714977
-1211.4286596089999 3222.512998744339 2200.230436323379
-1007.3303356065447 2827.7510270888306 1930.6993885113402
-1096.798774355464 3094.5044096091847 2112.830201154203
-905.136405465344 2795.542414338695 1908.7083615978058
-902.9032419917124 2885.561357665997 1970.17046245871
-848.8068756472494 2916.1182466853566 1991.0337444023196
-784.9412027678459 2802.1493092617998 1913.2193414775052
-682.0586058788483 2760.030354127007 1884.4618447444216
-655.5099174794391 2672.488996395869 1824.6913613384045
-681.0153280483387 2884.735495800609 1969.6065899737475
-655.0423967523633 2911.163075493028 1987.650509492545
-617.4736023238975 2886.387219531385 1970.7343349436724
-599.7006174560943 2827.7510270888306 1930.6993885113402
-566.469998253951 2818.6665465695614 1924.4967911767535
-466.8777111834159 2786.4579338194258 1902.5057642632191
-438.59112664766303 2771.5924202424403 1892.3560595338954
-422.1926588436303 2699.742437953676 1843.2991533421646
-429.2938158245236 2956.585478089373 2018.6634961654784
-402.2787502778592 3002.007880685718 2049.6764828384116
-390.0315177748581 3176.264734282606 2168.653577165483
-347.69193963040027 3064.7733824552133 2092.530791695556
-283.9073115478006 2777.373453300157 1896.3031669286324
-277.894809188047 3118.4544037054393 2129.1825032181137
-284.96213550168846 3338.1336598986722 2279.1725842181186
-233.72615076733052 2930.983760262342 2001.1834491316433
-198.60311984166623 2899.6010093775944 1979.7562947030713
3.0804231610119994 3157.26991137868 2155.6845100113474
30.020738717376602 2895.4717000506544 1976.936932278259
37.60389299237494 3070.55441551293 2096.477899090293
64.70817921497974 2990.4458145702847 2041.7822680489378
97.50848817137827 2963.1923730124777 2023.174476045178
129.43086861518714 2930.157898396954 2000.6195766466808
278.6966140341619 3491.743966860857 2384.0528664211292
364.21930983910033 3262.1543682829674 2227.2963156015753
381.2305248649717 3102.7630282630657 2118.4689260038276
431.4522079051141 3173.7871486864415 2166.961959710596
475.5775602436699 3273.716434398401 2235.1905303910494
461.875514086297 3139.1009503401415 2143.279315342174
656.7364271211469 2870.695844089011 1960.0207577293863
771.4478560079048 3168.0061156287247 2163.014852315859
696.54549619312 2817.8406847041733 1923.9329186917912
799.5047509170755 3118.4544037054393 2129.1825032181137
775.5015595911605 2880.6061864736685 1966.7872275489353
910.3265182617197 3126.7130223593203 2134.821228067738
1019.3506024037715 3457.8836303799453 2360.93409453767
1016.9712512709573 2943.3716882431636 2009.6415364060797
1180.8361918535004 3111.0216469169463 2124.1076508534516
1150.4789622238486 2961.5406492817015 2022.046731075253
-2024.993583399777 3072.555091637722 2089.9907198002365
-1946.9820118081755 2968.3726531160987 2019.1245113247712
-1753.1823362270197 2907.186141603399 1977.504674601085
-1847.4115786474358 3071.7282468875505 2089.428289574241
-1713.9719725217774 2946.047844861465 2003.9388952228858
-1787.50014540269 3089.918831391326 2101.8017545461475
-1768.8871634120246 3084.130918140125 2097.8647429641774
-1704.2092729632552 2979.948479618501 2026.9985344887118
-1608.131913990612 2861.7096803439604 1946.5710121713184
-1610.8609132976662 2909.666675853914 1979.1919652790723
-1638.447221152662 2995.658529871762 2037.684708782631
-1598.7458022312426 2950.182068612323 2006.7510463528645
-1430.9074997690939 2690.5528170584357 1830.1479553901966
-1597.3221819523865 3061.806109885491 2082.679126862292
-1507.28341936443 2936.952552609577 1997.7521627369324
-1487.2611792668777 2956.796826613696 2011.2504881608306
-1455.2723366005969 2903.051917852541 1974.6925234711064
-1410.0726898480073 2861.7096803439604 1946.5710121713184
-1485.5555075454192 3025.42494087794 2057.9321969184784
-1363.4379409181 2826.155356086581 1922.3865124535007
-1455.1604799070758 3027.0786303782834 2059.05705737047
-1383.778010478182 2931.164639358376 1993.815151154962
-1409.1051986527139 3063.4597993858342 2083.8039873142834
-1360.0946399461461 3013.8491143755373 2050.0581737545376
-1335.4827682715654 3029.559164628798 2060.744348048457
-1330.5508984313199 3030.3860093789694 2061.306778274453
-1112.768409808028 2650.8642690501983 1803.1513045424
-1191.0546338398074 2849.307009091386 1938.134558781382
-1197.063503814897 2925.3767261071744 1989.8781395729918
-1091.3619068424875 2826.155356086581 1922.3865124535007
-1067.6840493068555 2843.5190958401845 1934.1975471994117
-1097.1515785792578 2993.177995621247 2035.9974181046439
-996.9914268112234 2904.7056073528843 1975.8173839230979
-955.6322605402288 2859.2291460934453 1944.883721493331
-909.9133799227249 2829.462735087267 1924.636233357484
-881.7368568055238 2837.7311825889833 1930.2605356174413
-853.7373965223579 2830.289579837439 1925.1986635834796
-773.154022344593 2781.5057395773133 1892.0152802497298
-768.628849288273 2859.2291460934453 1944.883721493331
-683.0623252333263 2649.210579549855 1802.0264440904086
-744.4591973475883 2908.012986353571 1978.0671048270808
-728.2318149995623 2972.5068768669566 2021.93666245475
-643.007434027178 2748.431949570449 1869.5180712098995
-648.7415557994665 3062.632954635663 2083.2415570882877
-608.6274490469493 3032.0396988793127 2062.4316387264444
-607.2921744662642 3053.5376623837747 2077.054824602334
-559.0588255298117 3099.8409683933855 2108.550917258097
-464.11020844966714 2773.2372920755975 1886.3909779897722
-477.8564814075962 3059.3255756349763 2080.9918361843047
-432.98542785619253 2947.701534361808 2005.0637556748773
-331.5469149828799 2974.9874111174713 2023.6239531327371
-297.7694488101338 2970.8531873666134 2020.8118020027584
-272.9639426055261 3066.7671783865208 2086.0537082182664
-241.35088561934074 3103.1483473940716 2110.80063816208
32.2213462046458 3111.416794895788 2116.4249404220373
94.13862960581224 2864.190214594475 1948.2583028493057
103.67601803037479 2984.082703369359 2029.8106856186905
315.02234200608314 3536.414996483998 2405.514076583857
310.4341814048896 3413.2151287084275 2321.711972910489
317.73210433601736 3109.7631053954447 2115.3000799700458
376.5084462505997 3320.6085166892067 2258.719787598964
395.6818905648125 3175.9106854091738 2160.2944980497064
429.07063266501086 3204.0234069150088 2179.417125733562
433.3607917027688 3191.6207356624345 2170.980672343626
459.7409714565446 3168.4690826576293 2155.2326260157447
483.5050435541636 3290.015260932857 2237.909869237121
490.0935848425099 3136.2221374009364 2133.29784720191
533.8451337303592 3376.007114950705 2296.4026127406796
599.3809327965675 2984.909548119531 2030.3731158446863
1219.392828858539 3216.426078167583 2187.8535791234985
-1866.7100004947636 3115.9337375372625 2111.552259186844
-1478.343132713432 3024.872974750573 2049.8437712722443
-1265.7225644038413 2755.0019868554755 1866.9622525435218
-1215.0873543198259 2706.1603049971604 1833.8640635711456
-1358.4846049746368 3122.5563384672037 2116.0401492169963
-1188.445794942368 2858.4801263858044 1937.0855342646576
-1141.807483176086 2880.8314045243555 1952.232163116423
-1261.9021081755777 3256.66400729851 2206.9199223275887
-1202.8324983563434 3192.0936482315847 2163.1629945336
-1045.8652582168968 3034.8068761454847 2056.575606317473
-1005.5054441196028 2932.9843868476414 1987.5742971038756
-1017.5355648667214 3048.052078005367 2065.5513863777787
-907.5429719791366 2809.6384445274894 1903.9873452922816
-923.2084322301872 2874.2088035944143 1947.7442730862704
-901.869580581304 2889.109655686782 1957.8420256541137
-884.0491038076361 2848.546224990893 1930.3536992194286
-883.9162527827159 2933.812211963884 1988.1352833576445
-860.4933892079791 2873.380978478172 1947.1832868325012
-804.83655892406 2880.0035794081127 1951.671176862654
-737.4258998071398 2863.4470770832604 1940.4514517872722
-728.1602612669047 2847.7183998746505 1929.7927129656596
-734.5089534883228 2979.3425933572285 2018.9895273149443
-708.1775869926201 2894.0766063842375 1961.2079431767283
-696.011055243618 2978.514768240986 2018.4285410611753
-667.6786756116996 2974.375642659773 2015.6236097923297
-666.8083454658534 2995.0712705658384 2029.648266136557
-616.943582064392 2890.765305919267 1958.963998161652
-610.0342437498763 2883.3148798730836 1953.9151218777301
-615.7398965192575 2961.9582659161333 2007.2088159857935
-579.731002475137 2865.1027273157456 1941.5734242948104
-582.4668332234686 3075.370306841374 2084.0639327521585
-432.5794485112529 2740.1011347631083 1856.8644999756782
-437.7474987309504 3061.297279865249 2074.527166438084
-279.20547538027853 2788.9428166214234 1889.9626889480544
-233.82675729068023 3009.972122658206 2039.7460187044005
-60.625726313442556 2817.9166956899157 1909.5972078299724
67.1203065938657 2860.9636017345324 1938.768493025965
174.69571374526762 3055.5025040515507 2070.6002626617005
205.21693622860263 3084.4763831200426 2090.2347815436183
324.3216029103883 3178.02062125546 2153.6262282195253
527.4352790211246 3379.1821245024194 2289.9458878854134
599.4482105699839 3360.9699719450814 2277.6041903024934
561.6127444237082 2935.467862196369 1989.2572558651827
700.2959701113571 3308.8169896217955 2242.262056315041
676.1506462735308 2870.069678013201 1944.9393418174247
769.3414886941121 2884.142704989326 1954.4761081314994
848.2950690405648 3054.674678935308 2070.039276407931
812.4448283952137 2906.493983127877 1969.6227369832648
1036.9340863782822 3024.0451496343308 2049.282785018475
1039.798888785457 3016.5947235881467 2044.2339087345533
1658.7601594659118 3429.6794565932196 2324.1660493653276
1429.0967731959722 2591.920438955677 1756.4479605510116
1902.6767936631418 3440.441183104374 2331.458870664326
-1720.0162472329516 2693.609621998033 1818.5068612132352
-1619.8455718616906 2649.68306508545 1788.8512108611424
-1717.8511562558883 2951.3673427492295 1992.5239793170247
-1679.2572240327022 2934.791283536934 1981.333167863405
-1668.2714525567048 2924.016845048942 1974.0591404185518
-1510.9675235672726 3011.0411559134936 2032.8109005500564
-1481.1132459417508 3077.345392762676 2077.574146364536
-1423.9836903312857 3023.4732003227155 2041.2040091402714
-1271.4274437506133 2770.6882973352076 1870.5441344725677
-1307.1087856601782 2903.2967710335724 1960.070626101527
-1280.5065572443561 2855.226199317915 1927.6172728860292
-1353.05953573084 3088.9486342112828 2085.40771438207
-1275.6729648199423 2983.690658213206 2014.3460616515836
-1099.9261043922772 2626.476582188236 1773.1840748260745
-1141.2833432788868 2736.7073759500017 1847.602970992647
-1188.191191616254 2923.188042088327 1973.499599845871
-1260.581709874288 3184.2609746819826 2149.7548802403844
-1253.8829031159974 3239.790773043173 2187.244098610011
-1094.554890771225 2841.136548987464 1918.1050831504524
-1203.1444362449213 3196.6930190912044 2158.1479888305994
-1074.7236181331625 2938.9352983400076 1984.13087072681
-1055.9077232931684 2901.6391651123427 1958.951544956165
-1000.7897779118587 2907.4407858366462 1962.868328964932
-985.6394037333843 2878.432682215129 1943.284408921097
-990.176515186709 2969.601007882755 2004.8338719160067
-950.0589803894733 2944.736919064311 1988.0476547355768
-883.5352711405001 2850.2533815542265 1924.2600294499434
-868.9515306701417 2887.5495147818915 1949.4393552205881
-816.6349678073964 2925.674450970171 1975.178221563914
-740.8369476235358 2880.0902881363586 1944.4034900664592
-730.4272143747451 2966.2857960402957 2002.5957096252828
-691.3644463403355 2828.704504578242 1909.7119745602374
-649.6258439899984 2761.571464768445 1864.3891881730767
-653.8402909181292 2801.3540068779544 1891.2471356617646
-621.4698012467821 2794.723583193036 1886.7708110803167
-613.3620217088908 2902.467968072958 1959.511085528846
-569.1782566918565 2816.2724601690206 1901.3188659700224
-539.0827009918942 3059.1117276291507 2065.2642537655543
-506.0378748659609 3030.9324269682484 2046.2398742944004
-500.4183640694412 3030.9324269682484 2046.2398742944004
-499.49203994260074 3167.684915469687 2138.5640687867644
-458.4839213505315 2942.2505101824668 1986.3690330175339
-480.23124312577426 3277.086906270838 2212.423424380656
-370.9800623779185 3127.073570399563 2111.146580725396
-348.041327929499 3130.388782242022 2113.38474301612
-289.9011917499694 2846.1093667511527 1921.4623265865384
-310.53218054315926 3105.5246934235784 2096.59852583569
-257.13637272733996 2836.1637312237754 1914.7478397143664
-94.12027158242209 2876.7750762938995 1942.1653277757352
-73.59221964056427 3150.2800532967767 2126.8137167604636
-61.338132028054105 2854.3973963573003 1927.0577323133482
-29.03624048363182 2830.362110499472 1910.8310557055995
-2.8998053235744523 3223.2147138308774 2176.0532871563914
32.59810390674636 3155.252871060465 2130.1709601965495
37.917427334161815 3107.182299344808 2097.717606981052
65.26215699892461 3026.7884121651746 2043.4421714309954
98.75859699408825 3011.8699588741083 2033.3704411227375
129.7956681321409 2948.880933867385 1990.8453575989818
169.61661834336405 3070.714969077758 2073.097821783088
442.5794370998834 3312.725433577273 2236.4836690059387
486.2552602592316 3359.138399371701 2267.8179410760745
516.4524277921203 3312.725433577273 2236.4836690059387
515.8018742508614 3269.627679625305 2207.387559226527
590.0505536819257 3418.812212535965 2308.104862309106
603.2902476917263 3351.679172726168 2262.7820759219458
700.2145280456205 3283.717329955756 2216.899748962104
695.6179099567713 2845.2805637905376 1920.9027860138574
790.8147787337274 3163.540900666613 2135.7663659233594
758.3004225532667 2846.1093667511527 1921.4623265865384
807.144712032906 2909.9271947184907 1964.546950682975
947.6119143105178 2953.0249486704593 1993.6430604623868
-1883.9269222006753 2903.3942028024962 1952.7680617863598
-1736.5171554877109 2897.5857548403305 1948.861409476413
-1669.7725743629326 2921.6493249693026 1965.0461119033362
-1628.077837628326 2856.9266191051715 1921.5148433067839
-1624.068981975763 2891.7773068781653 1944.954757166466
-1388.041684893314 2714.2047548919595 1825.5228151195151
-1345.8549150189083 2685.162515081131 1805.9895535697801
-1403.1465887999238 2857.756397385481 1922.0729364939193
-1410.039430911517 2881.819967514453 1938.2576389208425
-1320.416037763263 2756.5234471877375 1853.9855676634145
-1269.7968598266646 2699.2687458463906 1815.47713775108
-1266.267649778378 2721.6727594147437 1830.5456538037326
-1286.2601300522208 2806.3101440062997 1887.4711588915316
-1220.6628545690755 2724.991872535981 1832.7780265522738
-1150.9404971486592 2695.119854444844 1812.6866718154035
-1137.1357357321435 2729.970542217837 1836.1265856750854
-1115.2309296883666 2820.416374771559 1896.9587430728313
-1094.8741891640989 2845.30972318084 1913.70153868689
-1229.6776062022332 3225.348175562533 2169.30821839485
-1067.1395168249614 2838.671496938365 1909.2367931898077
-928.2114035486268 2802.161252604753 1884.6806929558552
-964.1786005224337 2926.6279946511586 1968.3946710261478
-906.9097434017064 2846.1395014611494 1914.2596318740252
-873.88049465806 2924.96843809054 1967.2784846518773
-823.2134851368319 2877.6710761129057 1935.4671729851661
-821.0444926511675 2983.8826959925054 2006.9031009384823
-776.8639014355525 2919.9897684086836 1963.9299255290655
-816.7327615383499 3178.8805918652083 2138.0549999152745
-738.9556604891757 2896.7559765600213 1948.3033162892775
-726.5495622168462 2954.010677901368 1986.8117462016123
-691.2787846578132 3086.7752027508677 2076.1066561432576
-622.2944783357193 2948.2022299392024 1982.9050938916653
-603.1815486602046 2988.0315873940526 2009.693566874159
-605.4739389482605 3027.031166568593 2035.9239466695171
-581.9838393544932 3050.2649584172555 2051.5505559093053
-544.0538119207096 2879.3306326735246 1936.5833593594366
-529.9800122520539 2949.0320082195117 1983.4631870788005
-516.4131569576119 3062.711632621896 2059.9219537163344
-477.53634587918975 3032.009836250449 2039.272505792329
-423.7548829706187 2895.0964199994028 1947.187129915007
-284.8767599145558 3280.943320343261 2206.700461932914
-233.69813971241254 3015.4142706442617 2028.1106420496233
-206.14863358395255 3109.179216319221 2091.1751721959104
-94.49662834126303 3265.177533017383 2196.0966913773436
-39.12976433982122 3229.4970669640797 2172.098684330527
-2.8655057491634404 3188.8379312289208 2144.7521181608977
32.44397575588704 3144.0299040922146 2114.615086055592
62.97476485876515 2924.138659810231 1966.720391464742
205.4372442653483 3095.0729855539616 2081.6875880146104
212.857100929953 3119.1365556829332 2097.872290441534
472.93330724121756 3229.4970669640797 2172.098684330527
520.9010562776759 3305.836668752542 2223.4432575469727
535.2951783941229 3319.113121237492 2232.3727485411373
533.8041102502539 3199.6250488729424 2152.0073295936563
689.5224422334924 3414.53762347307 2296.553465061695
730.6851220471601 3401.2611709881203 2287.6239740675305
672.4224209723232 2883.4795240750714 1939.373825295113
770.9207622057924 3021.2227186064274 2032.0172943595703
767.5749181115768 2884.3093023553806 1939.9319184822484
1148.2401947730336 2903.3942028024962 1952.7680617863598
1662.44326001023 3457.6860940491574 2325.5743107927296
1650.986851072355 3409.5589537912138 2293.2049059388833
1964.9395568821474 3561.408379087829 2395.33595918464
-1873.6906239426123 3072.117465570354 2058.4698874983783
-1844.9913024629411 3033.072165169649 2032.3076147259542
-1734.175964339323 2994.8576158412993 2006.701986055071
-1691.5872686034027 2963.2890750917936 1985.5495101965157
-1753.3873429932714 3080.424976293908 2064.0363285137873
-1722.3985530509099 3070.455963425643 2057.3565992952963
-1621.1419381430933 2898.4904914480703 1942.1312702763228
-1726.5596167271922 3105.3475084645706 2080.7356515600154
-1679.9389097599374 3057.9946973403116 2049.006937772182
-1547.2167194799554 2868.583452843275 1922.092082620849
-1532.4869811602005 2895.167487158649 1939.904693870159
-1565.7187107401087 3005.65737978192 2013.9383593751033
-1537.4121138393386 3009.8111351436974 2016.7215798828079
-1445.6711015468868 2887.69072750745 1934.8948969562905
-1492.5763839643262 2991.534611551878 2004.4754096489073
-1509.5095318540225 3088.7324870174625 2069.602769529197
-1472.33746048236 3066.3022080638657 2054.5733787875915
-1424.5548101575962 2977.4118433218355 1995.0124599227115
-1367.4343141130767 2920.9207704016667 1957.1606610179279
-1418.2371057752498 3086.2402338003963 2067.932837224574
-1263.451426847092 2812.923130995462 1884.7969278176063
-1354.1031605344526 3026.4261565908055 2027.8544619136267
-1247.9186522367754 2878.55246571154 1928.7718118393402
-1284.886158454753 3012.3033883607636 2018.3915121874309
-1204.879992328952 2895.998238231004 1940.4613379716998
-1181.4996481971796 2900.9827446651366 1943.8012025809455
-1192.5706884949077 2940.8587961381972 1970.5201194549104
-1133.0641452357565 2856.122186757944 1913.742421097735
-1101.518006983969 2852.7991824685223 1911.5158446915711
-1099.6636650572052 2861.1066931920764 1917.0822857069807
-1245.8850342509058 3256.544203633258 2182.044878040466
-1064.9559516049162 2836.1841610214137 1900.3829626607526
-1070.7886845185649 2865.2604485538536 1919.8655062146852
-1045.0217245694146 2864.4296974814984 1919.3088621131444
-1022.4299291527681 2816.2461352848836 1887.02350422377
-1007.0361386627344 2843.6609206726125 1905.3927595746209
-1064.8929653336477 3022.2724012290287 2025.071241405922
-974.0035800785992 2851.1376803238113 1910.4025564884894
-984.6547245002547 2928.3975300528655 1962.1704579317964
-982.7149561830693 2954.150813295884 1979.4264250795654
-918.8660710876693 2777.2008348841787 1860.8612314513462
-932.7808698915602 2914.2747618228236 1952.7075082056003
-857.4221399337441 2756.4320580752933 1846.9451289128228
-821.7503180997633 2857.783688902655 1914.855709300817
-774.7621833390851 2782.185341318311 1864.2010960605917
-740.8369476235358 2886.8599764350947 1934.3382528547495
-675.9359972084816 2751.4475516411608 1843.605264303577
-712.0263782262757 2920.0900193293114 1956.604016916387
-655.2798504352895 2792.1543541865763 1870.880825279083
-615.2752838715106 2750.616800568805 1843.0486202020363
-659.2519214293416 2971.5965858153477 1991.115951211925
-615.463776209321 2919.259268256956 1956.047372814846
-583.0810805015752 2891.8444828692272 1937.6781174639952
-589.9926496419683 3126.1162852734565 2094.6517540985387
-556.9966716781013 3135.254547069366 2100.774839215489
-517.3846360743308 3106.1782595369264 2081.2922956615566
-455.3843117414011 2929.228281125221 1962.7271020333374
-466.6283348733497 3191.7456199895346 2138.6266381202727
-464.9084145116419 3220.8219075219745 2158.1091816742055
-359.68454762627505 3189.2533667724683 2136.95670581565
-281.256996820115 3109.501263826348 2083.51887206772
-245.58039340979866 3097.870748813372 2075.725854646147
-241.87904375865998 3201.7146328577996 2145.306367338764
-202.50617175538738 2974.088839032414 1992.7858835165478
-198.61130697573225 2999.0113712030766 2009.4852065627758
-171.59058909824034 3015.626392650185 2020.6180885935946
-164.5477517833358 2989.873109407167 2003.3621214458256
-34.50497204888655 2851.1376803238113 1910.4025564884894
168.97569185029872 3066.3022080638657 2054.5733787875915
203.56462595301002 3070.455963425643 2057.3565992952963
633.192211184229 3353.742079098842 2247.172237920755
668.1188015438748 3342.942315158222 2239.935864600723
713.0859640613518 3381.156864486571 2265.541493271606
742.8574601763306 3189.2533667724683 2136.95670581565
700.015974925618 2848.645427106745 1908.7326241838666
787.3161345205001 3067.1329591362214 2055.1300228891323
763.495514803912 2852.7991824685223 1911.5158446915711
816.3403225374108 2949.9970579341066 1976.6432045718607
901.0383698883057 2895.998238231004 1940.4613379716998
934.4850011237652 2902.6442468098476 1944.9144907840273
1017.827287677751 2963.2890750917936 1985.5495101965157
1179.060000866554 3067.1329591362214 2055.1300228891323
1272.555692296439 2970.7658347429924 1990.559307110384
1618.747838953802 3382.818366631282 2266.6547814746878
1541.114935485772 3077.9327230768417 2062.3663962091646
1562.1278462918965 3067.9637102085767 2055.6866669906735
-1695.341280765605 2827.8525348847475 1887.6572890612072
-1770.8480351686208 3002.51401498057 2004.2478863267525
-1753.5492707077096 3023.307048325311 2018.1277193345554
-1740.9074468862045 3053.249016341738 2038.1146788657916
-1654.3600820700026 2952.610734953192 1970.9362871080252
-1650.6861191677704 2999.187129645412 2002.027113045504
-1541.311158955505 2906.034340260973 1939.8454611705465
-1421.5651618442682 2786.266468195266 1859.8976230456012
-1404.1691146100295 2761.314828181577 1843.2418234362376
-1496.8268971424757 2993.3650803088844 1998.140759803319
-1354.4173744661161 2774.622369522211 1852.1249165612314
-1380.1917131587552 2877.7558149121255 1920.9688882799344
-1349.8178731265311 2876.0923722445464 1919.8585016393101
-1274.6954767654265 2777.1175335235803 1853.7904965221678
-1231.8736136129933 2693.945400144617 1798.271164490956
-1236.2122200662777 2755.4927788450495 1839.3554701940527
-1286.0820574936058 2877.7558149121255 1920.9688882799344
-1316.4744664088569 3077.3689350216373 2054.215285154843
-1271.066368002537 2983.3844243034087 1991.4784399595735
-1271.8603936173295 2997.5236869778323 2000.9167264048797
-1179.6487130862631 2838.664912224013 1894.8748022252648
-1081.6879654313811 2659.013104125452 1774.9530450378468
-1148.8835399336378 2899.380569590656 1935.4039146080495
-1097.9895567577535 2846.982125561909 1900.4267354283859
-1081.1443582705274 2816.208436211693 1879.8845825768376
-1228.08667661875 3213.7712337631365 2145.2669896860307
-1072.1305230422076 2858.626224234964 1908.1994419127557
-1045.3248051159835 2868.6068802404398 1914.861761756501
-1038.2210147066285 2935.14458694361 1959.2772273814705
-963.3701735810404 2899.380569590656 1935.4039146080495
-888.5578361481057 2763.8099921829457 1844.907403397174
-852.6605150809688 3234.5642671078776 2159.1468226938337
-742.5424715317339 2896.885405589287 1933.738334647113
-703.4877362251317 2866.94343757286 1913.7513751158767
-696.4286453319875 2859.4579455687535 1908.7546352330678
-705.5229900113178 3210.444348427978 2143.046216404782
-557.0672028110321 2955.1058989545613 1972.6018670689616
-572.5369404847513 3128.935657716594 2088.6372710141945
-532.2019072790761 2999.187129645412 2002.027113045504
-510.81669901171534 3036.614589665945 2027.0108124595492
-507.9868025266586 3232.900824440298 2158.0364360532094
-488.1885134380307 3143.9066417248077 2098.630750779813
-462.63003951145595 3208.780905760399 2141.935829764158
-420.6749047298784 3118.123280377329 2081.419757850137
-407.03748102392467 3059.0710656782653 2042.0010321079765
-290.49213768539454 2861.9531095701227 1910.4202151940042
-280.8812861644643 3108.974345705643 2075.3126313267035
-269.6026392514587 3112.3012310408017 2077.533404607952
-201.0920225112855 2956.7693416221405 1973.7122537095859
-163.4047415597783 2972.5720469641433 1984.260926795516
-98.4046285141486 3018.316720322573 2014.7965594126827
-39.03927927325946 3229.5739391051397 2155.815662771961
131.40078600673735 2995.860244310253 1999.8063397642554
430.39936752745734 3232.900824440298 2158.0364360532094
418.7657391324683 3102.320575035326 2070.871084764207
459.86094561402285 3187.987872415658 2128.055996756355
467.1006251375232 3197.136807087344 2134.1631232797886
506.76167670770474 3262.0110711229354 2177.4682022641337
514.6251399369811 3273.6551697959903 2185.2409087485034
691.1921979030615 2970.908604296564 1983.1505401548918
753.1470857011478 3114.7963950421704 2079.1989845688886
768.4582034028444 2894.390241587918 1932.0727546861767
771.9442129875313 2887.736470917601 1927.63120812368
1034.091979406832 3014.158113653625 2012.020592811122
1597.2689209893024 3193.8099217521853 2131.94234999854
-1851.0553659057116 3050.140032847462 2028.3527257410835
-1798.0590171884623 3002.676756333046 1996.7894974125982
-1822.5473582080358 3051.8054109707746 2029.46020743682
-1791.4031953075373 3049.3073437858056 2027.7989848932154
-1715.8961622186864 2970.2018829284457 1975.19360434574
-1709.6081029759648 3001.8440672713896 1996.23575656473
-1617.0787281078617 2889.431043947773 1921.480742102528
-1600.462566067341 2885.267598639491 1918.712037863187
-1602.6212155314377 2915.244404859122 1938.646708386441
-1522.7836636274767 2874.4426408379577 1911.513406840901
-1547.8778116740045 2931.065497030594 1949.167784495936
-1566.2643377448328 3023.4939828744564 2010.6330186093023
-1304.1440855832045 2665.4376863621965 1772.5244540259919
-1510.7275330900534 3098.4359984235343 2060.469694917437
-1313.575523535197 2742.045080034587 1823.468612029863
-1465.8923381309191 3070.9572593888724 2042.1962469377877
-1467.7693245843118 3085.945662498688 2052.1635821994146
-1283.0686376422523 2737.0489456646483 1820.146166942654
-1346.9539946529553 2960.2096141885686 1968.548714171322
-1264.570846303838 2821.9832299536033 1876.6277334252068
-1171.9701523922945 2625.4686114026886 1745.9448933283202
-1291.2645232788527 3034.31894067599 2017.8316496315886
-1119.016017848123 2684.589534780294 1785.2604935269596
-1128.0411875971927 2776.1853315625003 1846.1719867924578
-841.1117618835817 3216.677845178746 2139.100895314716
-801.5425781105811 3175.876081157581 2111.9675937691763
-752.672692543744 3070.9572593888724 2042.1962469377877
-674.9713901240619 2882.7695314545217 1917.0508153195826
-628.7807011933479 2963.5403704351943 1970.7636775627946
-612.8365830837832 2913.5790267358093 1937.5392266907047
-591.4562755676708 2940.225076708815 1955.258933822486
-590.3702853176981 2961.8749923118817 1969.6561958670582
-561.8772159600371 2955.2134798186303 1965.226269084113
-533.4098209976356 2978.5287735450097 1980.7310128244214
-539.7288893287802 3045.1438984775236 2025.0302806538746
-513.2333819737077 3088.4437296836572 2053.8248047430193
-449.4382850242292 2863.6176830364243 1904.3147758186149
-462.8750349634662 2984.357596976605 1984.6071987594987
-452.0537903171805 3099.2686874851906 2061.0234357653053
-447.6407302997058 3108.4282671634114 2067.114585091855
-282.76909527975965 2841.1350783717007 1889.3637729261745
-282.23384452480684 3127.580115581509 2079.850624592823
-239.32398757071826 3025.9920500594258 2012.2942411529068
-198.0611371503147 2997.6806219631076 1993.4670523253892
-168.8016511487097 2973.5326391750714 1977.4085677372125
-161.80452724679782 2946.886589202066 1959.6888606054313
-125.74573400055147 3142.5685186913242 2089.81795985445
-103.12284437567018 3166.7165014793604 2105.8764444426265
-68.58686017422659 3206.685576438869 2132.456005140298
-62.87341513313387 3220.008601425371 2141.315858706189
-26.92200584417062 3225.00473579531 2144.638303793398
66.53094482666931 3100.101376546847 2061.5771766131734
69.29550171496321 2971.034571990102 1975.747345193608
99.19341745416128 3039.3150750459286 2021.1540947187975
170.4864471553813 3100.9340656085033 2062.1309174610415
175.83163819118647 3093.4398640535956 2057.1472498302282
204.22555006324706 3087.611040622001 2053.2710638951507
314.0149512940645 3095.1052421769086 2058.2547315259644
411.332578221416 3275.798768556351 2178.416495513356
509.8627170547177 3285.7910372962283 2185.061385687774
548.8051720907956 3095.1052421769086 2058.2547315259644
587.775364961771 3280.79490292629 2181.738940600565
689.3548790640552 3425.6827996545067 2278.0898481296254
712.3851424750507 3385.7137246949987 2251.5102874319537
711.3486813184306 3351.5734731670855 2228.806912669359
759.4224049936713 3097.6033093618776 2059.915954069569
783.4130239388717 3080.9495281287495 2048.8411371122056
786.565551873831 2966.0384376201637 1972.424900106399
1036.5442996365132 3122.5839812115705 2076.528179505614
1121.6046993682583 2911.08095955084 1935.8780041471002
1476.4017283287374 3372.390699708496 2242.650433866063
1498.7202183068716 3409.861707483035 2267.5687720201304
1605.3927713657706 3350.740784105429 2228.2531718214905
-1904.0116117977543 3092.0236244063503 2048.4313281418576
-1840.941178996063 3077.851502105216 2039.0424544350872
-1805.1424039004555 3026.1649384187253 2004.8006797398068
-1726.68047238155 3035.335135201812 2010.8758333147757
-1732.6509253904985 3099.5265126834215 2053.4019083395597
-1645.3034115691296 2951.969709901021 1955.6471644514202
-1673.1164075313925 3047.0062947439233 2018.6078469556455
-1522.7836636274767 2877.7744813833165 1906.4936491630338
-1553.594405864846 2945.3004758769575 1951.2288709423517
-1525.2852377487548 2947.8014386359814 1952.8857310082524
-1429.1227223696656 2816.9177209137392 1866.1767208927843
-1508.056218126873 3022.8303214066937 2002.5915329852726
-1351.07206140714 2823.586954937802 1870.5950144018527
-1228.7494236879725 2745.2234551550587 1818.6800656702985
-1144.2077787232206 2691.869582962552 1783.3337175977508
-1127.346161901583 2707.7090137697023 1793.8271646817884
-1236.6783168539846 2982.814917262314 1976.0817719308618
-1155.1765228387114 2858.6004335641346 1893.7910553244621
-1110.637451307773 2821.9196464317865 1869.4904410245856
-1097.027252150604 2851.0975452870634 1888.8204751267601
-1097.7478746999627 2866.103321841206 1898.761635522164
-1240.1641335834272 3252.9188952368777 2155.022659048134
-1073.690212485097 2869.4379388532375 1900.9707822766982
-1158.9603245311114 3112.0313264785404 2061.686208669063
-1027.0297682836426 2866.9369760942136 1899.3139222107975
-978.2048381693228 2771.9003912513117 1836.3532397065724
-1083.0412236763323 3084.520736129279 2043.4607479441556
-924.6806083769825 2789.407130564478 1847.9512601678769
-975.4877912922939 2958.6389439250843 1960.0654579604886
-804.6619567351108 2611.0051204207844 1729.761908800296
-845.3995278357738 2950.3024013950053 1954.542591074153
-626.6320948452723 3118.700560502604 2066.1045021781315
-616.2622629700908 3095.358241418382 2050.640474896392
-540.3634132943797 2739.387875384003 1814.8140588498636
-560.1026803654235 3131.2053742977223 2074.388802507635
-518.6517401359706 3090.3563159003347 2047.3267547645905
-386.11425638183823 2868.6042846002297 1900.4184955880646
-400.0653871401543 3013.6601246236064 1996.5163794103034
-356.05816550690605 3221.240033622577 2134.0357648800587
-343.138599549791 3212.06983683949 2127.9606113050895
-316.4991720027556 3183.725592237221 2109.1828638915485
-298.05984565984915 3376.2997246820487 2236.7610889659
-209.06782424802003 3081.1861191172475 2041.2516011896214
-196.8753864578499 3161.216927406007 2094.2711232984425
-154.05336911051384 2716.8792105527896 1799.9023182567576
-95.28626745624639 2929.4610450698074 1940.7354238583143
-64.38366645801845 3013.6601246236064 1996.5163794103034
-20.989131777622248 3240.4140814417588 2146.7383587186305
3.084451964518424 3191.228480514292 2114.1534440892506
37.998339422364886 3132.03902855073 2074.9410891962684
75.23844552796173 3229.576576152656 2139.5586317663942
175.59498726495337 3092.857278659358 2048.983614830491
247.94854970472048 3211.236182586482 2127.408324616456
311.75188396725133 3133.706337056746 2076.0456625735355
312.9167015316693 3087.855353141311 2045.6698946986899
400.0085345126704 3237.0794644297275 2144.5292119640962
593.3946695272821 3350.4564428388035 2219.6402016182597
559.5800492313713 3127.037103032683 2071.627369064467
687.6792473696847 3421.317054344476 2266.584570152112
672.9878960144557 3317.943926971495 2198.1010207615514
712.5858094598541 3361.2939481279063 2226.819928570496
780.2040631186927 2866.9369760942136 1899.3139222107975
936.821596021426 3149.5457678638963 2086.539109657573
1060.9104479889575 3325.446815248566 2203.0716009592534
1517.879039502263 3403.81031503131 2254.9865496908074
-1787.0051548759318 2825.1782230999693 1864.5624172233283
-1810.8068097936189 2884.4360233481516 1903.6714073630199
-1649.9305950538217 2725.0241945114917 1798.462715578779
-1635.17082849804 2886.10525715796 1904.7730690570957
-1406.2886407020612 2765.920422851787 1825.4534270836366
-1418.5491597596504 2799.305099047946 1847.486660965153
-1478.069254433987 2976.2438828875893 1964.26280053719
-1362.945994428124 2861.9013669157443 1888.7989744929964
-1321.6063147618584 2795.132014523426 1844.7325067299635
-1312.4069439748746 2901.9629783511355 1915.238855150816
-1318.791658955871 2961.220778599318 1954.3478452905076
-1261.2097738473137 2899.4591276364235 1913.5863626097023
-1223.8898602515258 2955.37846026499 1950.4920293612424
-1151.4707947106199 2852.720580961801 1882.7398351755794
-1050.6714645176241 2660.7586928338856 1756.0487403568598
-1123.433569653712 2857.7282823912246 1886.0448202578068
-1196.9056784733637 3202.4250641165677 2113.537960084464
-1064.2689505739752 2861.06675001084 1888.2481436459584
-1059.8302343768576 2862.7359838206485 1889.3498053400342
-1034.4939991132726 2862.7359838206485 1889.3498053400342
-973.8386149756543 2957.047694074798 1951.5936910553182
-962.2958860141266 3020.4785788475006 1993.4568354301994
-975.2544022242914 3168.2057710155045 2090.9538953559095
-870.0042611974819 3039.6747676602918 2006.1259449120714
-879.0997972629034 3300.9098588952374 2178.5360000349374
-832.9376243581528 3149.0095822027133 2078.2847858740374
-816.3063805613004 3195.748128877336 2109.1313133081608
-718.7817985950328 3255.0059291255184 2148.2403034478525
-624.540539117304 2950.370758835566 1947.1870442790148
-530.4273786101734 2968.7323307434535 1959.3053229138488
-431.0421552487033 2962.055395504222 1954.8986761375456
-400.2745131905754 2785.9512285694823 1838.6733674125464
-375.34210624738415 2791.7935469038102 1842.5291833418119
-389.88391670671194 2940.3553559767183 1940.57707411456
-303.57069050696356 3057.2017226632756 2017.6933926998674
-302.5973620610748 3361.002276048324 2218.195821021667
-281.5009653454131 3192.40966125772 2106.927989920009
-242.08997752062749 3068.0517424270274 2024.8541937113603
-232.5405815080032 3017.9747281327886 1991.8043428890855
-205.10820636453482 3026.320897181828 1997.3126513594648
-209.9448053793336 3184.8981091135843 2101.970512296668
-168.7543810139719 2979.5823505072053 1966.4661239253417
-157.41536798833707 2873.5860035844003 1896.510606351527
-133.0475946001049 2924.4976347835427 1930.1112880208395
69.33434448498281 2979.5823505072053 1966.4661239253417
141.85293811307656 3113.121055291842 2054.5990594514074
187.14306802171575 3097.2633340986663 2044.1332733576871
218.23657009418432 3216.6135514999355 2122.9020844841084
334.2518982700604 3025.4862802769244 1996.7618205124268
397.1616380946232 3266.6905657941743 2155.951935306383
424.0878769308365 3196.58274578224 2109.682144155199
452.902444480286 3150.678816012521 2079.3864475681135
473.9054209251666 3255.0059291255184 2148.2403034478525
594.0438242228779 3704.8644408687633 2445.1381300012863
512.1537970657953 3053.8632550436596 2015.4900693117158
546.8857566382317 3091.421015764339 2040.2774574284217
717.9917151654594 3420.260076296506 2257.304811161359
728.4147080495567 3297.5713912756214 2176.332676646786
649.859905422392 2917.820699544311 1925.7046412445363
761.2597172638173 3112.2864383869382 2054.04822860437
777.506670222574 3043.013235279908 2008.329268300223
959.1369470010565 3329.2868336619727 2197.2642488342262
923.5388754251159 3089.7517819545305 2039.175795734346
1039.86124139535 3139.8287962487693 2072.2256465566206
1233.2518490765403 3208.2673824508956 2117.393776013729
1482.1418569625316 3490.367896308441 2303.574602312543
1583.1264357513762 3176.5519400645444 2096.4622038262887
-1764.129933509296 2827.5926167709094 1859.0793403140813
-1880.9109047255247 3061.5541808063276 2012.903872018556
-1575.6458178798823 2605.3291309372626 1712.94603519483
-1797.7746418154936 3028.9666772442515 1991.4783122454328
-1744.7013067541122 3074.0878360225106 2021.1444719312958
-1769.4662624281127 3172.685923723151 2085.9705245781815
-1553.041746225753 2896.1099319527107 1904.1279531703917
-1508.7411283674742 2866.8647364482836 1884.8998867073324
-1510.3256773032006 2916.163780298604 1917.3129130307752
-1476.1103177534612 2859.3445433185734 1879.9555267596886
-1589.1825465990403 3129.2359189737163 2057.4031115473504
-1504.4064881529744 2972.1474402642216 1954.120925974346
-1337.0987405917967 2872.713775549169 1888.7454999999443
-1328.8565625081194 2919.5060883562523 1919.5104063408392
-1294.6311578757889 2910.314741197718 1913.4672997381633
-1321.2677497228233 3028.9666772442515 1991.4783122454328
-1261.2097738473137 2902.794548068008 1908.5229397905196
-1310.7816038514131 3078.2657210945717 2023.8913385688757
-1292.3275840828694 3047.34937156132 2003.5645254507842
-1194.3567463161637 2949.586860875092 1939.2878461314144
-1238.8563472778385 3140.9339971754875 2065.094338132574
-1172.6293844913919 3111.68880167106 2045.8662716695148
-1089.2871069139915 2917.834934327428 1918.4116596858073
-1094.0734486063852 2944.5733987886188 1935.9916061663187
-1052.2956576870672 2901.123394039184 1907.4241931354875
-1024.842743144869 2839.2906949726803 1866.7705668993049
-1048.8306328037665 2934.546474615672 1929.399126236127
-1068.9909591529636 3051.527256633381 2006.3113920883643
-963.7023574077134 2822.579154684436 1855.7831003489853
-953.2677357411968 2978.832056379519 1958.5159125944738
-964.9642781457216 3156.809960449319 2075.532431355378
-784.4008507340975 2627.889710326392 1727.7791150377616
-812.6634779814677 2993.872442638939 1968.4046324897615
-847.2871991218104 3206.944581314052 2108.494831006337
-786.3678606121316 3149.2897673196094 2070.588071407734
-614.9383375842134 2933.71089760126 1928.8497529086108
-584.2536078108286 2914.492626269779 1916.2141663757434
-517.6723599954387 3091.6349533251673 2032.6813118091313
-441.00142736208556 3033.980139330725 1994.7745522105286
-443.8034671414978 3092.4705303395795 2033.2306851366473
-379.1852315339571 3077.4301440801596 2023.3419652413597
-378.26769664592325 3116.7022637575333 2049.162511634611
-291.6570786049339 3311.391708115578 2177.1664969458343
-235.1772418624911 3055.705141705442 2009.0582587259441
-230.09628256191218 3140.9339971754875 2065.094338132574
-219.58909462413794 3243.7099699481887 2132.6672574170398
-139.63379633089824 3203.602273256403 2106.2973376962727
-108.01719257930074 3148.4541903051972 2070.038698080218
-96.0997529496122 2961.284939076863 1946.9790727166383
-70.02974439355985 3022.282061128954 1987.083325625305
-2.8722165354612472 3218.6426595158227 2116.1860575915607
30.50881119509779 2977.160902350695 1957.417165939442
36.74420205521736 3035.651293359549 1995.8732988655606
64.11846092884488 2998.0503277109997 1971.1514991273414
312.6641666817073 3150.1253443340215 2071.13744473525
413.3472701260608 3119.20899480077 2050.810631617159
409.89643795513183 3050.691679618969 2005.7620187608482
516.6328682617793 3084.114760195457 2027.7369518614876
581.2113761144822 3255.4080481499595 2140.3584840022636
629.8741919269847 3323.0897863173486 2184.857723531058
639.5886177412492 3189.397464011395 2096.9579911285014
753.9104681832333 3085.785914224282 2028.8356985165194
1054.5274320070737 3313.062862144402 2178.2652436008666
1377.921831985864 3330.6099794470583 2189.802083478702
1426.074598583919 3432.550375205348 2256.825629435652
1542.7450663677103 3277.9686275390895 2155.191563845195
1615.2109595691047 3128.400341959304 2056.8537382198347
-1739.1068138850508 2790.6793542360947 1827.8415527174157
-1765.9207184104273 2877.678950411321 1884.824622706208
-1813.6087718891574 2986.4284456303535 1956.0534601921984
-1560.7112378812776 2618.3532310428586 1714.9712410088462
-1698.7007558557298 2996.466860573649 1962.62842980629
-1571.4090695042391 2820.794599065981 1847.56646155969
-1609.0013957145404 3060.8800231264604 2004.8178181633764
-1470.5026514382084 2851.7463784744746 1867.839284536472
-1444.7715950324882 2857.6021205247303 1871.6746834780251
-1555.4685091259496 3086.8125950633066 2021.8031563331126
-1324.708170827544 2673.564513230983 1751.133573886349
-1385.9996157978621 2916.996075605894 1910.5765870280661
-1260.87088917935 2712.045103846948 1776.3376240736995
-1118.2481258343785 2566.488087169166 1681.000564669374
-1172.3576259780448 2911.1403335556383 1906.7411880865127
-1045.9309662091212 2886.880830776008 1890.8516781857918
-1043.8436533326637 2895.246176562088 1896.330819530868
-998.4469226918835 2853.4194476316907 1868.935112805487
-967.2419097090961 2943.7651821213485 1928.10983933231
-971.9144898879068 3164.610310873845 2072.759170842321
-770.6831887975711 2584.891847898541 1693.0546756285414
-855.4963669069037 3014.870621303023 1974.6825407654574
-826.8139872361571 2989.7745839447853 1958.245116730229
-805.8600466235872 3162.1007071380213 2071.1154284387985
-723.4269646970072 3256.6291145207188 2133.029725638159
-612.0592554302659 3056.6973502334204 2002.0782474908383
-556.8219937392149 3123.620116522056 2045.9113782514478
-509.8373188711834 3048.332004447341 1996.599106145762
-528.4546470093259 3194.725555703731 2092.4840796845956
-513.4692582295436 3174.6487258171405 2079.3341404564126
-459.1092455045412 2938.7459746497007 1924.8223545252642
-413.3455659663835 3124.4566511006637 2046.4592923859555
-287.82446304413986 2905.284591505383 1902.9057891449595
-296.88656009518417 3305.1481200799794 2164.8087454396014
-275.68695847945554 3133.658531465351 2052.4863478655393
-231.76887603839702 3014.870621303023 1974.6825407654574
-214.83755316395565 3177.158329552964 2080.9778828599356
-204.93825996803398 3116.0913053145846 2040.9801510408793
-176.4439475753998 2760.564109406209 1808.1166438751413
-171.54331896350254 3035.783985768222 1988.3803941281478
-151.6909647338525 3341.9556415387287 2188.9169673579363
-108.01719257930074 3152.062292194726 2064.540458824707
-101.1433630084801 3120.273978207624 2043.7197217134174
-72.33373653700292 3125.2931856792716 2047.0072065204631
36.359869636252796 3007.341810095552 1969.7513135548888
69.70335080016899 3002.3226026239045 1966.463828747843
140.5979389286981 3092.668337113562 2025.638555274666
220.72811370709144 3260.8117874137583 2135.7692963106974
246.9186491867362 3208.946643540066 2101.798619971225
285.70766065971395 3244.9176304202074 2125.3589277550527
297.6529692892964 3002.3226026239045 1966.463828747843
430.6208233378651 3253.282976206287 2130.838069100129
716.715784555877 3074.2645763841874 2013.5844443154983
763.7005250879904 3152.898826773334 2065.0883729592147
770.9207622057924 3045.8224007115173 1994.9553637422393
926.4069567856134 3125.2931856792716 2047.0072065204631
1032.0880494050195 3321.0422770735304 2175.219113995246
1059.653570249673 3314.350000444667 2170.8358009191847
1625.6428851621263 3142.023877251431 2057.9654892106155
-1754.4387721345447 2797.2152458780774 1825.1539300089858
-1850.5500272854806 3066.8868953309943 2001.111883740391
-1812.0206512653556 3043.437186682914 1985.8111921115733
-1836.4713216540997 3092.849072762797 2018.0519351865823
-1818.9209181177966 3105.4114166814106 2026.248734273449
-1809.5031183622557 3097.874010330242 2021.3306548213288
-1898.6476700252233 3259.509502083077 2126.7961364056805
-1731.2896797939593 3014.125050872815 1966.685327575551
-1673.5664342308405 2955.5007792526158 1928.4335985035063
-1718.868120760664 3044.2746762774887 1986.357645384031
-1586.217931365848 2825.689892093603 1843.7333412725504
-1593.311864956997 2863.376923849445 1868.3237385331504
