# .PCD v.7 - Point Cloud Data file format
VERSION .7
FIELDS x y z
SIZE 4 4 4
TYPE F F F
WIDTH 853
HEIGHT 1
VIEWPOINT 0 0 0 1 0 0 0
POINTS 853
DATA ascii
-1829.5597898553222 3279.773062850517 1797.4116546301073
-1698.0724712217711 3086.845235624016 1691.6815572989244
-1529.2497616185042 2787.8071034229392 1527.799906435591
-1780.3407082981842 3301.696679580801 1809.4264384177416
-1639.4002648694918 3049.136614847927 1671.0161291841932
-1891.4356583439028 3645.458989911657 1997.8182482078491
-1851.6690830113782 3579.688139720805 1961.7738968449457
-1706.1706063610645 3328.8819643263537 1824.3247703144082
-1615.485889218581 3273.6344501660374 1794.0475151695696
-1401.9165788131938 2850.0701749369464 1561.9218923924727
-1680.8416734522827 3473.577834746229 1903.6223433127952
-1684.5799950276348 3492.8706174688796 1914.1953530459136
-1552.517755856605 3229.787216705469 1770.0179475943007
-1420.717054914892 2995.6429900260337 1641.7000567423652
-1462.31865665819 3093.8607929777068 1695.5262881109675
-1532.1270620438397 3467.4392220617497 1900.2582038522576
-1437.7068480079652 3302.5736242500125 1809.907029769247
-1322.1369591054208 3119.2921883848367 1709.4634373046233
-1168.6339268896095 2822.884890191394 1547.0235604958061
-1305.8003491136499 3218.386936005721 1763.7702600247308
-1341.5827346689728 3320.11251763424 1819.5188567993544
-1274.1204146251991 3390.268091171149 1857.9661649197847
-1087.5303261280026 2986.8735433339198 1636.8941432273116
-1135.4539144235193 3192.0785959293803 1749.3525194795695
-1152.9183991479272 3335.8975216800445 1828.1695011264512
-1080.3374649631903 3141.215805115121 1721.4782210922576
-956.4342643273588 2850.9471196061577 1562.402483743978
-1076.016091414648 3223.6486040209893 1766.653808133763
-1056.1356208180446 3246.449165420485 1779.1491832729027
-1151.6591631267004 3596.350088435821 1970.905132523548
-1145.487484077284 3634.935653881121 1992.0511519897846
-1115.3929154872158 3558.641467659732 1950.2397044088168
-995.3457347330775 3210.494433982819 1759.4449378611823
-929.7368631618909 3049.136614847927 1671.0161291841932
-954.0529535835 3146.4774731303887 1724.36176920129
-974.3395068314584 3249.9569440973305 1781.0715486789243
-923.0596394946757 3132.446358423007 1716.672307577204
-833.6624878914361 3041.244112825025 1666.6908070206448
-857.8213349698401 3149.108307138023 1725.803543255806
-802.7544867681771 3042.9980021634474 1667.6519897236556
-769.7065460261718 2936.887697188872 1609.500436191505
-847.7589448193967 3344.666968372158 1832.975414641505
-717.4787381828775 2850.0701749369464 1561.9218923924727
-735.7334752223962 3161.385532506982 1732.5318221768814
-762.46580018313 3300.81973491159 1808.9458470662362
-744.3791933834975 3348.1747470490036 1834.8977800475266
-637.0106739625442 2887.7787957130354 1582.587320507204
-686.2614386401356 3238.5566633975827 1774.8238611093545
-627.8973340941722 3116.6613543772023 1708.0216632501072
-111.5475868293796 573.5218136642347 314.30674388451604
-583.9186000081847 3057.0291168708295 1675.3414513477417
-619.913695715941 3275.38833950446 1795.0086978725803
-533.8626021873246 2985.9965986647085 1636.4135518758062
-423.5832816892278 2570.32482545852 1408.6132512622578
-139.33120951852123 1104.0733385371125 605.0645115452687
-139.91657063661356 1191.7678054582493 653.1236466958063
-126.76531388938447 1096.1808365142101 600.7391893817203
-129.1079204555892 1208.4297541732653 662.2548823744085
-119.79182586930068 1140.0280699747786 624.7687569569891
-101.9361041014374 1078.6419431299828 591.1273623516128
-102.73865297312332 1224.2147582190698 670.9055267015052
-86.60182819358683 1153.182240012949 631.9776272295697
-78.2307361837153 1212.814477519322 664.6578391319354
-69.04631308990137 1100.565559860267 603.1421461392472
-88.07336274840304 2848.316285598524 1560.960709689462
-73.32116174133567 3320.989462303451 1819.9994481508597
-37.04860780890062 3231.5411060438914 1770.9791302973115
-30.52418838542847 3148.2313624688118 1725.3229519043007
2.839500711327828 3090.3530143008616 1693.603922704946
30.457435144811345 3119.2921883848367 1709.4634373046233
35.77325699678057 3101.7532950006093 1699.8516102745157
61.009037238315614 2993.889100687611 1640.7388740393544
75.43265937805972 3406.053095216954 1866.6168092468813
101.85669277210863 3286.7886202042077 1801.25638544215
93.82263089143919 2864.1012896443285 1569.6113540165588
137.44142582859482 3169.2780345298847 1736.8571443404298
140.58457271163923 2997.3968793644563 1642.661239445376
166.69691243858915 3088.5991249624385 1692.6427400019352
191.61291495955678 3050.89050418635 1671.977311887204
200.90901678623922 3111.399686361934 1705.1381151410749
241.25419633782252 3286.7886202042077 1801.25638544215
236.11430261834624 3141.215805115121 1721.4782210922576
42.336149404879365 526.1668015268209 288.35481090322577
243.20873820530431 2895.6712977359375 1586.9126426707523
288.7759827022229 3367.4675297716535 1845.4707897806447
270.2015530633958 2857.085732290637 1565.7666232045158
301.93420390771763 3134.2002477614296 1717.6334902802146
331.57788308389996 3153.49303048408 1728.206500013333
318.1008859881187 2975.473262634172 1630.6464556577416
376.0554498668047 3249.9569440973305 1781.0715486789243
347.3676998137328 2957.0574245807334 1620.5540372761286
381.34690552214124 3020.197440763952 1655.1566145845159
398.6694744395161 3114.0305203695684 1706.579889195591
400.7136859772597 2928.9951951659696 1605.1751140279566
458.1085735609944 3306.081402926858 1811.8293951752685
435.3085387119473 2954.4265905730995 1619.1122632216125
440.09863339122927 2951.795756565465 1617.6704891670963
512.6236048383532 3247.326110089696 1779.6297746244081
487.9388184125068 3057.0291168708295 1675.3414513477417
550.1339981733399 3267.495837481558 1790.683375709032
570.7686665847045 3355.1903044026944 1838.7425108595694
581.7269064490357 3221.0177700133554 1765.212034079247
606.1883062715425 3201.724987290705 1754.6390243461287
596.1897568570512 3120.169133054048 1709.9440286561287
714.8380180271045 3577.9342503823823 1960.812714141935
588.4838643619805 2799.207384122687 1534.047594005161
666.7755951802403 3145.6005284611774 1723.8811778497845
684.4195979795992 3101.7532950006093 1699.8516102745157
698.9685365573505 3142.9696944535435 1722.4394037952684
749.7192737664008 3244.6952760820623 1778.188000569892
885.9928058259499 3805.939864377338 2085.766465533333
910.8764402662232 3772.615966947306 2067.503994176129
855.9823846059825 3520.0559022144316 1929.0936849425802
783.9156960000281 3113.153575700357 1706.0992978440856
800.8476541420183 3158.7546984993483 1731.0900481223653
859.099911383358 3277.142228842883 1795.969880575591
898.1727659698689 3296.435011565533 1806.5428903087093
1082.626545322802 3828.7404257768335 2098.2618406724728
950.2914531084258 3242.941386743639 1777.2268178668814
1096.8210278185838 3699.8295594027622 2027.6149120011823
1124.110034265365 3685.7984446953806 2019.9254503770962
967.1703936250502 3085.0913462855933 1690.7203745959137
1056.7223620027705 3352.5594703950605 1837.3007368050535
1122.3754113166517 3467.4392220617497 1900.2582038522576
1014.9738329884385 3119.2921883848367 1709.4634373046233
1183.8455554401194 3582.318973728439 1963.2156708994619
1254.8179133120916 3758.5848522399237 2059.8145325520427
1208.208568666611 3600.734811781878 1973.308089281075
1315.1732535608921 3861.187378537654 2116.0437206781717
1160.7840891209771 3374.483087125345 1849.3155205926878
1362.7268485010648 3904.157667329011 2139.592696901935
1097.286436395847 3084.214401616382 1690.2397832444083
1100.179226160693 3021.074385433163 1655.6372059360212
1111.3382947973819 3037.736334148179 1664.7684416146233
1137.7389983647065 3040.3671681558135 1666.2102156691394
1230.1697603852872 3272.757505496826 1793.5669238180642
1276.332425972488 3321.8664069726624 1820.4800395023651
1203.3481929610618 3052.6443935247726 1672.9384945902148
1478.4936015990534 3734.907346171217 2046.8385660613974
1304.5825383737636 3228.0333273670462 1769.05676489129
1274.6908528539834 3141.215805115121 1721.4782210922576
1467.28125084386 3543.733408283139 1942.0696514332253
1416.616571922339 3407.806984555377 1867.577991949892
1305.9782184108376 3080.7066229395364 1688.3174178383867
1536.0730650592272 3609.5042584739913 1978.1140027961287
1433.6555714319552 3305.2044582576464 1811.348803823763
1424.9343842670432 3272.757505496826 1793.5669238180642
1620.8504635822298 3654.228436603771 2002.6241617229027
1690.0491938084567 3796.2934730160127 2080.479960666774
1433.4982090538829 3162.2624771761934 1733.0124135283868
1526.3997870888265 3355.1903044026944 1838.7425108595694
1581.1795379699195 3414.8225419090677 1871.4227227619351
1833.0488853798386 3931.3429520745635 2154.4910287986017
1255.7694980382041 2647.4959563491207 1450.905290194731
1482.8148361462845 3004.412436718147 1646.505970257419
1459.8804788154246 2901.809910420417 1590.27678213129
1645.9914974003286 3221.0177700133554 1765.212034079247
-1933.6868663328228 3107.348716364408 1695.8726234326878
-1932.7564904434719 3143.337783418346 1715.5140860204674
-1519.112852997935 2538.5459004875333 1385.441702533145
-1897.6995835058099 3187.226889581685 1739.4670891762964
-1875.7774142650294 3207.415878416821 1750.4854706279777
-1819.4762116219365 3152.115604651014 1720.3046866516331
-1781.3186363138502 3094.1819845154064 1688.686722485939
-1982.5520389188368 3490.061722108725 1904.7428109515158
-1959.3005706247368 3458.4615656711208 1887.4966486793192
-1989.628706549564 3560.2842919700674 1943.0676160008422
-1766.9438398281882 3170.5490292396166 1730.3649479770813
-1696.1428434135646 3086.2819454060054 1684.37518191789
-1781.217207982725 3296.949654990033 1799.3495970658687
-1497.312378504484 2820.3139620561706 1539.2199827935665
-1608.131913990612 3038.0039286263323 1658.0268784464781
-1885.0578301049275 3681.4182249808837 2009.17790471093
-1678.0557817701804 3287.294051634098 1794.0799363715862
-1585.6952809364943 3165.282336500016 1727.4905875983818
-1623.9790669785118 3359.2721857419747 1833.3628615471457
-1543.3171985578308 3203.0269678004875 1748.0901703123948
-1389.5244966248988 2932.6700738343184 1600.5396708724886
-1469.779466130936 3112.615409104009 1698.7469838113873
-1563.669166031971 3368.927789097909 1838.632522241428
-1595.5816192001907 3449.6837444384532 1882.7060480481532
-1299.614046667984 2859.8141576031758 1560.7776856338126
-1539.4254407757728 3399.6501634122465 1855.3996244505083
-1409.826333521019 3181.9601968420848 1736.592728797597
-1407.5478355298376 3236.382688484625 1766.2944527108248
-1464.1433809831863 3404.9168561518472 1858.2739848292078
-1670.0066887066498 3974.5974541519886 2169.183965791867
-1300.8564410374502 3132.804397939145 1709.7653652630686
-1359.5943013984427 3287.294051634098 1794.0799363715862
-1358.6871055206857 3450.56152656172 1883.18510811127
-1210.7624447600842 3154.7489510208143 1721.741866840983
-1314.6576135385203 3501.472889711193 1910.9705917720314
-1183.742217182827 3181.0824147188177 1736.1136687344804
-1210.0008356394148 3296.071872866766 1798.8705370027521
-1136.8025092461228 3110.8598448574753 1697.788863685154
-1152.3478998813744 3167.915682869816 1728.9277677877317
-1143.5642995265443 3217.949263896023 1756.2341913853766
-1212.0191057288541 3510.250710943861 1915.7611924031971
-952.1567216328285 2771.158163153231 1512.3926192590382
-1136.0000062031663 3372.4389175909764 1840.5487624938944
-1017.336473213708 3130.1710515693444 1708.3281850737187
-968.8972543244772 3077.5041241733375 1679.584581286724
-931.234893462466 2973.925833627857 1623.0554938389678
-1066.6437581687612 3501.472889711193 1910.9705917720314
-906.1439084944878 3095.93754876194 1689.6448426121722
-978.2459463467743 3361.905532111775 1834.8000417364954
-860.9703455434354 3030.1038895169313 1653.7153378784287
-858.2622049662989 3038.8817107495993 1658.5059385095947
-1042.7905664573452 3714.773945665021 2027.38218710936
-868.9993926550004 3173.182375609417 1731.8021281664312
-778.1866979057964 3073.1152135570037 1677.1892809711412
-723.6600934656838 2877.3698000685113 1570.3588868961442
-724.6344704956542 2983.5814369837917 1628.32515453325
-745.51756982036 3091.548638145606 1687.2495422965892
-765.530170751514 3292.560744373699 1796.9542967502857
-729.8523586768908 3162.648990130215 1726.0534074090322
-708.0045753728855 3212.682571156422 1753.359831006677
-117.25573559679366 577.5806371095425 315.2215215307086
-639.2044329636226 3175.815721979217 1733.2393083557808
-566.597984074318 2839.6251687680397 1549.7593041821312
-112.05927300749602 576.7028549862757 314.742461467592
-112.74513357195933 585.4806762189436 319.53306209875785
-624.9570558320531 3275.0051019083635 1787.3730954879543
-597.8391250251191 3161.7712080069487 1725.5743473459156
-576.0626655992708 3103.837587871341 1693.9563831802213
-569.7670180172503 3189.8602359514857 1740.904269365646
-142.95540907598428 1118.2944250418802 610.322520410521
-145.6392944609801 1155.161274219085 630.4430430614173
-164.34398216291495 1321.9398776397736 721.4644550535671
-126.94417335904673 1082.3053579879422 590.6810578227412
-124.63565661604281 1078.794229494875 588.7648175702749
-116.92792795977891 1095.472089836944 597.8669587694899
-113.71008701747465 1083.183140111209 591.1601178858579
-120.38412913088422 1251.7173077784312 683.1396500042408
-114.78171071584617 1215.728240724493 663.4981874164612
-106.55154194253889 1244.6950507922968 679.3071694993082
-104.57852856361622 1247.3283971620972 680.744349688658
-75.9680973931523 1178.8613915472881 643.3776647655649
-64.53114129492258 2925.6478168481844 1596.707190367556
-62.317689885644974 3071.35964931047 1676.231160844908
-36.113595454429046 3152.9933867742807 1720.78374671475
3.1287688030890908 3408.4279846449144 1860.190225081674
37.20944656238499 3229.360431498491 1762.4619722058922
67.70294814415968 3059.948481708002 1670.0033800243925
88.7033738548993 2865.080850342776 1563.652046012512
95.34516593040009 2913.3588671224493 1590.0003494839239
131.98446523386332 3175.815721979217 1733.2393083557808
160.87254975940115 3084.526381159472 1683.4170617916566
179.61805301091593 3331.1831577974376 1818.0329395274152
36.291912544309675 595.1362795748781 324.8027227930402
210.64868727305802 3265.349498552429 1782.1034347936718
222.58724944935707 3035.370582256532 1656.5896982571282
233.21395942593773 3105.5931521178745 1694.9145033064547
245.05011266173452 2920.3811241085837 1593.8328299888565
254.55903683516263 2971.292487258057 1621.6183136496181
296.906556159287 3142.4600012950796 1715.0350259573509
289.00864901183604 3002.8926436956613 1638.8644759218148
340.153173163656 3238.1382527311584 1767.2525728370579
353.6329330819876 3310.9941689623015 1807.014558075734
374.9392572201412 3243.4049454707592 1770.1269332157574
379.8175294226669 3236.382688484625 1766.2944527108248
388.96674682595955 3217.949263896023 1756.2341913853766
390.5373216540628 3095.93754876194 1689.6448426121722
396.4240817363929 3099.448677255007 1691.5610828646386
409.4717994731698 2995.870386709527 1635.0319954168822
500.6350764275154 3361.0277499885083 1834.3209816733788
507.2072519941132 3252.182766703427 1774.917533846923
542.1101908039403 3437.394794712718 1875.9992071645213
528.9503140507353 3317.138643825169 1810.36797851755
510.7121577245257 3036.2483643797987 1657.0687583202448
523.9256552654161 3082.7708169129382 1682.4589416654235
538.613339907516 3014.3038112981294 1645.0922567423304
538.6477562845549 2985.3370012303253 1629.2832746594834
643.0015674512046 3529.56191765573 1926.300513791762
615.1541152385826 3252.182766703427 1774.917533846923
581.109071607716 3044.1484034891996 1661.380298888294
645.0830330208553 3071.35964931047 1676.231160844908
650.6034522249348 3072.2374314337367 1676.7102209080247
696.2232721319191 3158.2600795138815 1723.6581070934492
730.9525878953543 3289.927398003899 1795.517116560936
751.7455420738775 3256.571677319761 1777.312834162506
847.6133939606783 3644.5513758036786 1989.0573820600337
854.9788623419362 3544.4842137512655 1934.4445348647437
787.9522727038626 3110.8598448574753 1697.788863685154
772.1812567231068 2929.158945341251 1598.6234306200222
927.562297817247 3407.5502025216474 1859.7111650185575
915.8567638824327 3343.4721075231723 1824.7397804110474
924.2530549732332 3353.127710879107 1830.0094411053296
872.8459550014345 3089.7930738990726 1686.291422170356
872.646943878189 3070.481867187203 1675.7521007817913
1042.057747188671 3601.5400517636062 1965.5834389673214
980.6144361984188 3349.61658238604 1828.0932008528634
1027.4318761635157 3489.1839399854584 1904.2637508883993
1113.5703298395 3675.273750118016 2005.824484269114
1009.1047250257487 3311.8719510855685 1807.4936181388505
937.5888704978807 2977.4369621209244 1624.9717340914342
1077.809670401954 3332.938722043971 1818.9910596536483
1203.5829308506786 3608.5623087497406 1969.415919472254
1082.4750476162064 3059.948481708002 1670.0033800243925
1092.259407109115 3030.1038895169313 1653.7153378784287
1259.2181970251415 3461.0949120409214 1888.9338288686688
1138.2876067959326 3114.3709733505425 1699.7051039376204
1119.0337422623734 2993.2370403397263 1633.5948152275325
1396.2435942838658 3621.7290405987424 1976.6018204190027
1457.4306180763679 3700.7294316927528 2019.7172260994948
1260.1389466552157 3186.3491074584185 1738.9880291131797
1396.8401316496731 3376.82782820731 1842.9440628094774
1450.154586491782 3491.8172863552586 1905.7009310777491
1407.3205851162163 3310.116386839035 1806.5354980126174
1392.1940545080806 3212.682571156422 1753.359831006677
1534.1335359016557 3526.92857128593 1924.8633336024122
1581.1752182533633 3568.184331079469 1947.3791565688914
1563.1686237027168 3514.639621560195 1918.15649271878
1465.7587082499604 3224.9715208821567 1760.0666718903092
1591.330921752469 3440.0281410825187 1877.436387353871
1610.5794953308798 3398.77238128898 1854.9205643873918
1510.2457528893826 3014.3038112981294 1645.0922567423304
1281.8951869514458 2332.26710151984 1272.862587700749
1452.0629611760958 2605.257341855809 1421.8502673300047
1784.7737281165794 3193.371364444553 1742.8205096181125
-1900.3662734383872 3056.708207087315 1661.317530373123
-1875.6802782728828 3024.199381659827 1643.6490197022965
-1918.4740720572463 3177.078722859365 1726.738772586724
-1617.6404207090266 2726.3482513917616 1481.767259772291
-1943.65891541892 3424.84868963103 1861.401475537348
-1732.7007421570993 3112.0610720043887 1691.401751245071
-1863.5236637965963 3356.3165711622714 1824.1543449339838
-1725.9981581274592 3152.4774495628876 1713.3680077547472
-1531.6131618002173 2845.840150260366 1546.7109746704643
-1478.6717015234135 2787.851434632955 1515.1941718522332
-1828.755143115708 3510.074529265255 1907.721625133839
-1841.4596876346895 3599.6934534167085 1956.429411307469
-1527.194972038912 3041.7717197287393 1653.1995660108514
-1611.1583084813224 3271.0907315280465 1777.8341953374927
-1529.167468274699 3114.696922714726 1692.834333191354
-1408.435032688359 2985.5402379082198 1622.6378178234756
-1544.9371401918668 3402.8832670448896 1849.4632926516542
-1431.9804532336373 3295.692004824524 1791.2049601694694
-1297.9764580253386 3068.130226832108 1667.5253854736836
-1199.8933605758716 2892.406846142984 1572.0199223881348
-1369.0334073627578 3313.264342893436 1800.7555064780242
-1334.976269720549 3296.5706217279694 1791.6824874848971
-1306.4376073399017 3407.2763515621177 1851.8509292287931
-1109.325028913318 2970.603750549644 1614.519853461204
-1138.0855820556558 3117.332773425063 1694.2669151376374
-1132.958411314896 3191.136593314495 1734.3792096335678
-1000.1113997258344 2913.4936518256786 1583.4805779584005
-982.3235953826672 2933.701840604928 1594.4637062132388
-1031.0302900152387 3175.3214890524737 1725.7837179558685
-980.8147939253026 3036.5000183080656 1650.3344021182847
-912.5442285405511 2917.008119439461 1585.3906872201117
-897.3819133653454 2948.6383279635033 1602.5816705755103
-950.9684975757017 3233.3102046798845 1757.3005207740996
-975.5113185578595 3336.108382383022 1813.1712166791458
-1045.5352515985173 3683.1620592440427 2001.7945062731048
-915.7771765296095 3245.610841328123 1763.985903190088
-836.5471331782577 3057.5868239907604 1661.7950576885507
-800.9676792408449 2946.0024772531665 1601.1490886292272
-830.8660030767973 3284.2699850797308 1784.9971050689087
-833.5999124241678 3317.6574274106642 1803.1431430551631
-828.4582384072116 3414.3052867896827 1855.671147752215
-764.5682743302499 3173.5642552455824 1724.828663325013
-692.4670406184716 2981.1471533909917 1620.250181246337
-651.2559903264514 2824.7533445776708 1535.2503191001983
-714.9393667200852 3221.8881849350914 1751.092665673539
-685.9758600950544 3270.212114624601 1777.356668022065
-572.5985536857659 2847.5973840672573 1547.66602930132
-614.5880451674751 3083.0667141906833 1675.6433498359554
-109.19543671287215 567.586519625871 308.48264576632295
-585.9286468240477 3073.4019282527815 1670.39054936625
-554.3538805063569 2934.5804575083735 1594.9412335286665
-572.8012869381274 3178.835956666256 1727.6938272175794
-151.45198027552328 1109.693149051819 603.1169993852412
-144.53261289212767 1147.473675899981 623.6506739486342
-126.56248938716145 1096.5138955001348 595.9540896538251
-116.92792795977891 1096.5138955001348 595.9540896538251
-133.52181206508976 1273.1158930927045 691.9370800548018
-112.87067366619368 1174.710799906795 638.4540207268943
-121.2459514637422 1285.4165297409434 698.6224624707902
-103.7712830907237 1213.3699436584025 659.4652226057151
-115.83856717743274 1382.9430060234072 751.6279944832697
-86.79939890429462 1158.0170787413283 629.3810017337672
-87.71718837857202 1198.4334562998267 651.3472582434434
-76.98628484890565 1195.7976055894899 649.9146762971602
-73.4476716932417 1172.9535660999038 637.4989660960389
-63.46627097652451 2880.106209494745 1565.3345399721463
-66.48526331612253 3279.8769005625027 1782.60946849177
-52.58019444346736 3141.0554298180946 1707.1601526541865
-38.00372795594148 3321.1718950244467 1805.053252316874
-29.758958035933052 3075.159162059673 1671.3456039971056
-2.67462116113694 3151.598832659442 1712.8904804393194
31.04825972310541 3185.864891893821 1731.5140457410014
36.82511414342043 3199.0441454455054 1738.6769554724176
41.13192769947792 3098.003201549259 1683.761314198227
62.813932598910185 3088.338415611357 1678.5085137285218
71.29590437097252 3225.402652548874 1753.0027749352498
92.04605614171076 2975.8754519703175 1617.3850173537705
106.06036535553996 3243.853607521232 1763.0308485592325
133.67642827545953 3088.338415611357 1678.5085137285218
160.14006233875506 3073.4019282527815 1670.39054936625
165.04035595495753 3063.7371423148797 1665.137748896545
188.28142074809622 2921.401203956689 1587.7783237972503
252.11610874974755 3283.391368176285 1784.5195777534811
256.61394424811635 3061.101291604543 1663.7051669502616
267.5689964725284 3126.118942459519 1699.0421882919147
274.18242309011254 2904.7074827912224 1578.7053048041232
298.0480893638578 3099.76043535615 1684.7163688290825
324.57011914775524 3092.731500128585 1680.8961503056605
325.50730213697267 3050.5578887631955 1657.9748391651287
356.6545826616774 2830.0250459983445 1538.115482992765
383.9621522340594 3004.8698097840233 1633.143418762886
410.4315927329956 3005.748426687469 1633.6209460783139
472.6902788202303 3417.819754403465 1857.581257013926
479.49836365688225 3260.547328686699 1772.1038675523596
447.8127805600001 3009.2628943012514 1635.5310553400247
527.7129845108838 3349.2876359347065 1820.3341264105618
496.0571349552278 3113.81830581128 1692.3568058759263
580.7638314203489 3420.455605113802 1859.0138389602091
598.1860391229932 3452.0858136378442 1876.204822315608
575.0018940305631 3221.009568031646 1750.6151383581112
612.7692352440291 3399.368799431107 1847.5531833899433
574.8079748869022 3041.7717197287393 1653.1995660108514
566.3635126972549 2969.725133646198 1614.0423261457763
617.4238175312539 3096.2459677423676 1682.8062595673714
571.1997361543274 2839.6898319362467 1543.3682834624701
669.7875561488331 3192.0152102179404 1734.8567369489956
642.4244373969642 3036.5000183080656 1650.3344021182847
628.3037700423406 2852.869085487931 1550.5311931938863
720.0312045116457 3243.853607521232 1763.0308485592325
693.1863879877992 3005.748426687469 1633.6209460783139
710.2232653153178 3056.708207087315 1661.317530373123
853.5910108417493 3619.9016421959577 1967.412539562307
851.1676638470984 3532.039951851396 1919.6598080195326
855.7691353821145 3525.889633527276 1916.3171168115384
868.0486199932706 3453.8430474447355 1877.1598769464636
852.4291798946414 3368.61720781051 1830.8397273499722
830.3636285567806 3173.5642552455824 1724.828663325013
797.4038389774726 3027.7138492736094 1645.5591289640074
930.4295692169911 3421.3342220172476 1859.491366275637
939.5492396308055 3329.0794471554573 1809.3509981557238
939.2555013440198 3307.9926414727624 1797.8903425854578
897.8686687833531 3069.887460638999 1668.4804401045392
1126.517122133171 3700.734397312955 2011.3450525816597
1139.5455604251943 3641.867064782098 1979.3507224480009
1073.3070707969548 3411.669436079346 1854.2385658059318
1268.824975180328 3788.596087657517 2059.097784124434
1323.076667069804 3853.613738512493 2094.4348054660873
1146.1641585757748 3322.0505119278923 1805.5307796323018
1090.238064308807 3084.8239479975746 1676.5984044668107
1179.698711592917 3245.610841328123 1763.985903190088
1237.7434010762988 3389.704013493205 1842.3003829202382
1435.3822840632322 3843.0703356711456 2088.7044776809544
1186.0322437759128 3092.731500128585 1680.8961503056605
1273.065536038755 3305.3567907624256 1796.4577606391747
1312.2406608676215 3335.2297654795766 1812.693689363718
405.5495338315547 1009.5308220590183 548.6788854264784
1451.197458944317 3582.9997322512418 1947.356392314342
1312.601267458687 3176.2001059559193 1726.2612452712963
1361.9350264286822 3282.5127512728395 1784.0420504380534
1578.475239217881 3730.607372030106 2027.580981306203
1429.516166853111 3289.5416865004045 1787.8622689614754
1722.090983368964 3861.5212906435036 2098.732551304937
1613.977462218182 3567.1846279892206 1938.7609006366424
1668.0286225348625 3673.497273306141 1996.5417058033995
1409.012069017879 3048.8006549563042 1657.0197845342732
1662.736484787332 3524.132399720385 1915.362062180683
1284.4704239622306 2713.1689978400773 1474.6043500408748
1701.600245722668 3582.121115347796 1946.8788649989142
1280.8348547446149 2660.4519836333398 1445.9527111152101
1503.9063581885414 3062.858525411434 1664.6602215811172
1570.6757269045145 3188.500742604158 1732.9466276872847
1290.024333652554 2569.0758256749955 1396.2898703107248
1498.5558310118972 2938.094925122156 1596.8513427903774
1517.3354772157686 2763.2501613364775 1501.8234070202564
-1924.179855485633 3105.334444440842 1680.7316823839803
-1929.0643757428024 3205.591631262212 1734.9948972782804
-1756.5872487367192 2955.8281132159927 1599.812853155638
-1581.148371257002 2667.368838852754 1443.6871120562482
-2003.6013267313656 3432.489475121101 1857.8011204601175
-1820.996241873918 3160.739731894757 1710.7192485097778
-1729.7467361693775 3050.8086059941324 1651.2201093712908
-1894.1563130735083 3349.8212684438313 1813.0577678279753
-1843.7462160333446 3314.6433081556315 1794.0180433036596
-1582.2948027293776 2884.592743632388 1561.2574109938985
-1770.7840933459786 3283.8625929034565 1777.3582843448833
-1919.0826176420908 3698.08307529701 2001.5510406187022
-1861.6856300177894 3642.6777878430953 1971.5634744929048
-1661.0287805132332 3260.117469708922 1764.5064702909701
-1775.7615079714644 3574.0807652811054 1934.4360116704888
-1694.8451511659725 3512.519334776756 1901.116493752936
-1567.4249213086655 3259.238020701717 1764.0304771778622
-1426.123765018491 3015.6306457059327 1632.180384846975
-1377.9228143830699 3104.454995433637 1680.2556892708724
-1324.6533770958872 2995.4033185402177 1621.2325432454934
-1439.1508965457137 3327.835043263706 1801.1579400002781
-1284.966957443756 3040.2552179076724 1645.508192013996
-1253.1085582198805 3023.5456867707776 1636.464322864946
-1283.355368609745 3108.8522404696623 1682.635654836412
-1368.8066574217607 3355.977411494266 1816.3897196197306
-1344.2271713763948 3322.5583492204764 1798.3019813216306
-1331.3064802301456 3304.0899200691715 1788.3061259463648
-1167.5515244082617 2970.778746338478 1607.9047360784723
-1350.0785908663977 3539.7822540001107 1915.8722802592808
-1241.3729432230518 3403.467657883336 1842.093347727557
-1012.592106086547 2938.239133071893 1590.2929908934802
-1171.7227949140129 3416.659392991411 1849.2332444241756
-939.0766446425498 2807.2012309983484 1519.3700170404036
-996.6906396264625 2994.5238695330127 1620.7565501323854
-978.5373256093715 3016.5100947131377 1632.6563779600829
-1094.0902461696232 3426.333332070666 1854.4691686683623
-909.880456511969 3096.539954368792 1675.9717512529014
-962.9224182130254 3296.1748790043266 1784.0221879283938
-936.5421922119351 3302.3310220547614 1787.354139720149
-877.1706883902124 3229.336754456747 1747.8467113321938
-798.1276597551041 3034.0990748572376 1642.1762402222407
-766.7187332168735 2933.841888035868 1587.9130253279407
-808.1938970538348 3197.6765901973667 1730.7109592603094
-883.27151737529 3518.6754778271907 1904.4484455446914
-829.9505718268849 3423.694985049051 1853.0411893290386
-756.5246435371853 3143.150751750657 1701.19938624762
-683.2831276129216 2944.395276122328 1593.6249426852355
-648.6510152925345 2925.926846971023 1583.6290873099697
-638.3647810739132 2902.181723776488 1570.7772732560563
-802.8078060933508 3678.7351971385 1991.0791921303285
-779.5707899849727 3659.38731897999 1980.6073436419547
-661.0278243676851 3207.3505292766217 1735.9468835044963
-644.0126081734984 3233.733999492772 1750.2266768977331
-109.70253626417032 570.7624056760427 308.9195304070244
-588.7762131465203 3091.2632603255624 1673.115792574254
-587.5487236504501 3113.2494855056875 1685.0156204019513
-515.0480611410752 2888.9899886684134 1563.637376559438
-157.87932540809254 1237.38475313743 669.7223101428095
-143.72592539272443 1227.710814058175 664.4863858986226
-132.7255344480675 1168.7877305754403 632.5948473203937
-108.64963127030013 1131.8508722728304 612.603136569862
-123.48357326109083 1310.3790207354446 709.2297385307648
-128.76871876281973 1419.4306976288642 768.252884556144
-92.80053194572322 1086.1195238981707 587.8514946882514
-118.12001290964393 1411.5156565640193 763.9689465381729
-93.58265997192917 1249.6970392382998 676.3862137263201
-82.05801493479318 1122.1769331935755 607.3672123256752
-72.74383711660005 1130.9714232656254 612.1271434567541
-101.50089148868581 1719.322809085768 930.5665361259364
-91.39877191025339 3347.182921422216 1811.6297884886517
-64.36585631515317 3178.3287120388572 1720.2391107719357
-35.64106232905093 3117.6467305417123 1687.395585967491
-2.613478441534702 3082.4687702535125 1668.3558614431752
2.541369251852432 2773.7821687245587 1501.2822787423036
30.577312595479707 3140.5124047290424 1699.7714069082963
32.162555060718745 2796.647842911889 1513.658099683109
67.24575487046914 3309.3666141124013 1791.1620846250123
87.04562085087085 2816.8751700776033 1524.6059412845905
126.62191233464334 3052.5675040085425 1652.1720955975065
133.41021632725804 3085.1071172751276 1669.7838407824988
160.18584280254544 3077.1920762102823 1665.4999027645276
165.13501632545075 3068.3975861382323 1660.7399716334487
197.6163089608766 3155.463037851527 1707.8632898311305
187.65853484486942 2914.494009877358 1577.4411768395669
240.4817709493343 3285.6214909178666 1778.310270571099
250.02276656375972 3335.7500843285516 1805.441878018249
260.5176580957484 3110.6111384840724 1683.5876410626277
285.692697470246 3341.0267783717813 1808.2978366968964
287.5349246380581 3049.0497079797224 1650.268123145075
305.566876198717 3180.967059060472 1721.6670901112593
307.319394125863 2882.833845617978 1560.3054247676828
375.6495616316543 3255.7202246728966 1762.1265047254306
381.6718054003203 3258.3585716945117 1763.5544840647542
411.35416783239106 3267.1530617665617 1768.3144151958331
409.89643795513183 3210.868325305442 1737.850855956928
408.87192868577876 2997.162216554628 1622.184529471709
432.46907514683795 3129.9590166425824 1694.0594895510014
516.710847821038 3516.9165798127806 1903.4964593184757
483.9676269281347 3074.5537291886676 1664.071923425204
520.8319975080143 3272.4297558097915 1771.1703738744807
535.0739692378379 3187.123202110907 1724.9990419030146
553.612786642927 3263.6352657377415 1766.4104427434015
539.5544232038018 3025.3045847851877 1637.4163090911618
569.3733266224566 3161.619180901962 1711.1952416228858
617.6774985865142 3364.7719015663165 1821.1496507508095
582.7847033020867 3058.7236470589773 1655.5040473892618
643.8798324141198 3231.975101478362 1749.2746906715174
574.9111205785975 2860.8476204378535 1548.4055969399853
695.045165615497 3315.5227571628366 1794.4940364167676
738.9229477764113 3439.5250671787408 1861.6090653649808
678.8080151858733 3085.1071172751276 1669.7838407824988
722.7615503575728 3259.238020701717 1764.0304771778622
712.638563739576 3093.0221583399725 1674.0677788004698
899.8747207559417 3876.6112237596244 2098.177642579605
854.9788623419362 3551.2150910937753 1922.0601907296837
767.910455148516 3166.895874945192 1714.051200301533
825.0820778792421 3263.6352657377415 1766.4104427434015
825.5457721807493 3243.407938572027 1755.46260114192
203.02993976351092 781.8301674052418 423.15787755291944
824.3864817288525 3153.704139837117 1706.9113036049146
920.3941193178865 3387.637575753646 1833.525471691615
1055.3151317091092 3859.901692622729 2089.133773430555
956.2194785263288 3370.9280446167513 1824.4816025425648
898.1256432163191 3073.6742801814626 1663.595930312096
930.7628141043572 3166.895874945192 1714.051200301533
978.9950762214471 3237.2517955215917 1752.1306493501647
1074.1144763766547 3436.007271149921 1859.7050929125492
1066.9495990925175 3394.673167811286 1837.3334165964782
930.7711112056905 2883.713294625183 1560.7814178807905
1178.9901392692004 3541.541152014521 1916.8242664854968
1254.112255152727 3748.2116687076946 2028.6826480658522
1211.3387933532917 3514.2782327911655 1902.068479979152
1126.422911609146 3236.3723465143867 1751.6546562370568
1148.9264705048663 3253.9613266584865 1761.1745184992149
1260.495618477868 3471.185231438121 1878.744817436865
1400.4017484961234 3838.7949164498095 2077.7099387159656
1117.3929303235723 2994.5238695330127 1620.7565501323854
1245.991879489921 3324.3172472348865 1799.2539675478465
1244.323033029672 3247.8051836080517 1757.8425667074596
1175.94437473011 3056.0853000373627 1654.0760680499382
1482.6660154007452 3771.9567919022297 2041.5344621197655
1492.7265759276659 3781.6307309814847 2046.7703863639522
1277.3609027318262 3081.5893212463075 1667.8798683300672
1584.0515766150238 3747.3322197004895 2028.2066549527444
1606.607032332355 3786.0279760175094 2049.150351929492
1347.689490470527 3115.887832527302 1686.4435997412752
1443.6433298268194 3325.1966962420915 1799.7299606609542
1539.1661349639749 3479.9797215101707 1883.504748567944
1439.411267630349 3242.528489564822 1754.986608028812
1641.0095970533632 3630.365501742225 1964.8995709093942
1776.544237299149 3916.186429083849 2119.5973326694602
1394.7841361664425 3031.4607278356225 1640.748260882917
1404.9515155048591 3042.8935649292875 1646.9361713533197
1663.565573037039 3529.2288659136507 1910.1603629019862
1515.5273205663634 3049.9291569869274 1650.7441162581829
1285.9518291929396 2571.5088970674096 1391.8038627274875
1478.8514248985502 2947.913072151148 1595.528915137667
1475.7010620580675 2896.0255807260532 1567.445321464301
1526.0197502173214 2781.6972097894036 1505.5662167602748
1476.0356987426821 2653.297654737474 1436.071222246522
-1989.995399958187 3253.509084709624 1753.5947752294271
-1854.4421324013115 3084.4956257636695 1662.4989427499763
-1886.7241796904361 3177.8051395567486 1712.7914335980065
-1578.0204813039713 2664.602813694814 1436.1827339338408
-1875.7774142650294 3216.5373905651963 1733.6675618745471
-1806.0802287051633 3146.115116004382 1695.7109650081095
-1826.4809151307093 3224.459896453288 1737.9376790220215
-2011.0181491386893 3559.8459790491665 1918.7059715984315
-1809.9923054718427 3257.0301984376647 1755.492605072749
-1706.7557963587005 3114.4250924520156 1678.6304964182123
-1749.131548471443 3256.1499200056546 1755.0181476119185
-1482.687772179549 2784.3206804481983 1500.708948606785
-1672.5347421265462 3159.319292484535 1702.8278269205664
-1480.8195347841897 2805.4473628164424 1512.0959276667165
-1872.0753620851026 3610.9021281057567 1946.224504326599
-1606.830727744064 3268.473818053797 1761.660552063545
-1645.6208052633053 3413.7197593354767 1839.946033100573
-1557.274301203051 3241.1851866614816 1746.9523707778005
-1426.123765018491 3018.474743362906 1626.914633187691
-1588.018268810695 3504.388437832525 1888.8151515661118
-1337.3267881236252 3015.833908066875 1625.4912608051993
-1423.1999812463341 3281.6779945339495 1768.7774139760022
-1459.6884621940933 3378.5086220550693 1820.967734667354
-1344.8106601190364 3184.84736701283 1716.58709328465
-1324.219408203368 3289.6005004220415 1773.0475311234763
-1120.1996715829414 2852.982398144992 1537.716630551562
-1164.582413830095 3029.918362979038 1633.082580178487
-1238.1972058320935 3307.2060690622448 1782.536680340086
-1217.2717708572638 3265.8329827577663 1760.2371796810537
-1223.0891556872084 3356.5016612548147 1809.1062981465923
-1172.618634674903 3405.797253447385 1835.6759159530989
-1024.842743144869 2991.1861119705904 1612.2064519019461
-997.8614950034099 3000.869174722702 1617.4254839710813
-961.1347667574264 2965.658037442295 1598.4471855378624
-972.2135027705393 3096.819523811812 1669.141347201603
-1071.1400176573877 3430.44504954367 1848.960724856352
-1039.6367339584217 3422.5225436555784 1844.690607708878
-932.7808698915602 3088.0167394917103 1664.3967725932982
-850.4950400646335 3001.7494531547127 1617.8999414319119
-929.4121913398772 3300.1638416061633 1778.741020653442
-888.470748341046 3253.509084709624 1753.5947752294271
-859.9712631276592 3169.0023552366465 1708.0468589897016
-848.3287328469469 3227.9810101813287 1739.8355088653434
-701.2793578671202 2777.278452992117 1496.9132889201414
-780.9167594661905 3224.459896453288 1737.9376790220215
-795.8960995242912 3309.8469043582754 1783.9600527225773
-752.0604316767074 3243.826021957512 1748.375743160292
-702.3031161623038 3051.9253237792927 1644.9440166992488
-638.512796838909 2882.9118648333383 1553.848184219798
-641.8467707888617 2920.763837409776 1574.2498550355083
-700.5136247288383 3213.0162768371556 1731.7697320312252
-664.8912611574343 3149.6362297324226 1697.6087948514312
-649.0981444743918 3234.1429592054 1743.1567110911567
-111.71814888875174 576.5823729666677 310.76963684395963
-544.2201753948916 2860.0246256010737 1541.5122902382057
-578.0881933543835 3066.0097786914557 1652.5353360725364
-512.539455668242 2877.6301942412774 1551.0014394548152
-439.51671654938673 2621.469170526315 1412.9343183531478
-171.95735527719745 1262.3192715025975 680.3719988308978
-151.72604308966848 1206.8617302859564 650.4811787985781
-129.10623957197453 1103.8691537407653 594.9696558814128
-130.11191817606422 1129.3972282690604 608.7289222454965
-115.05408296042349 1080.9819145085005 582.6337618998205
-113.61793945911364 1085.3833066685515 585.0060492039728
-145.51997707354232 1438.3749579046334 775.2634909969923
-124.01422559135267 1293.129016622954 696.9780099599644
-113.7043372578635 1207.7420087179664 650.9556362594085
-126.85394227564026 1399.6427068961857 754.3873627204516
-104.74813079541552 1227.1081342221903 661.3937003976789
-118.56158305136222 1418.1285539683995 764.3509693978915
-84.75783489364733 1132.9183419971012 610.6267520888183
-70.75183954869576 1132.038063565091 610.1522946279879
-88.42587312886155 2870.587966785196 1547.2057797681714
-63.09840668471428 2868.8274099211753 1546.2568648465106
-66.05781988735559 3264.9527043257563 1759.7627222202232
-37.470871452855526 3280.7977161019394 1768.3029565151717
-30.388147434407063 3146.115116004382 1695.7109650081095
2.85642168605481 3120.5870414760866 1681.9516986440258
62.43865732591527 3075.6928414435674 1657.7543681416716
63.77982837218026 2890.83437072143 1558.1183013672724
96.09206991177713 2944.5313550740507 1587.0602064779312
133.90460994534652 3099.4603591078426 1670.5647195840943
167.8801670697546 3122.347598340107 1682.9006135656866
225.0332631795698 3077.453398307588 1658.7032830633325
259.63379835666194 3102.9814728358833 1672.4625494274162
289.0767910175377 3383.7902926471306 1823.814479432337
318.80134130622884 3383.7902926471306 1823.814479432337
296.52743584669525 3089.7772963557304 1665.345687514959
368.3435733989479 3195.410708196952 1722.2805828146159
372.93158472664686 2964.777759010285 1597.9727280770321
437.90567479550833 3213.0162768371556 1731.7697320312252
452.3987640023082 3196.2909866289624 1722.7550402754464
467.0942022688303 3182.2065317167994 1715.1637209021587
453.4349556152059 3052.805602211303 1645.4184741600793
522.448094112664 3436.6069985677414 1852.2819270821653
453.0860456687563 2849.4612844169515 1535.8188007082401
517.5039354797522 3085.3759041956796 1662.9734002108069
574.0506610083489 3387.3114063751714 1825.712309275659
580.5251634451446 3356.5016612548147 1809.1062981465923
570.7670191972775 3203.333214085044 1726.5506999620902
577.7674257353885 3211.2557199731355 1730.8208171095644
583.790082318709 3066.890057123466 1653.0097935333667
658.1727430364256 3142.594002276341 1693.8131351647876
737.226654721169 3491.1842613523722 1881.6982896536547
787.1696139612693 3580.9726614174106 1930.092950658363
724.9068220936584 3271.9949317818377 1763.558381906867
850.4248086479956 3694.528579146724 1991.2979631054939
691.6459968060641 2982.383327650489 1607.4618772936415
908.6248486446862 3889.0701126209738 2096.153061949028
846.3861695319245 3493.825096648403 1883.121662036146
788.3392467982237 3208.614884677105 1729.397444727073
900.5093544473563 3589.7754457375127 1934.8375252666676
822.1917337637934 3255.269641573644 1754.543690151088
851.5135327171415 3260.5513121657054 1757.390434916071
761.53686421209 2896.9963197455013 1561.4395035930856
871.3743534549583 3190.129037604891 1719.433838049633
927.6467947898768 3293.121614150082 1774.9453609667983
842.7105135564672 2973.5805433303867 1602.7173026853368
947.0799963120276 3134.6714963882496 1689.5430180173132
1135.8780193968605 3738.542500747233 2015.0208361470175
1005.586176554036 3202.4529356530334 1726.0762425012597
1051.783398480569 3244.7063003895223 1748.8502006211224
1181.4314182163769 3534.3179045208713 1904.9467052343477
1184.313496332889 3455.9731240719652 1862.7199912204358
1165.261842254768 3383.7902926471306 1823.814479432337
1273.4452582541776 3610.0218496737466 1945.7500468657686
1233.9891233337933 3401.395861287334 1833.3036286489464
1263.0885873606503 3465.6561868240774 1867.939023289571
1128.8786138951803 3028.157806115018 1632.1336652568261
1178.4182458138803 3146.9953944363924 1696.1854224689398
1278.3540718425604 3339.7763710466215 1800.0916063908135
1484.5663228607173 3861.781481228658 2081.4448806632836
1512.7410779654142 3852.098418476546 2076.2258485941484
1388.2357156127293 3520.2334496087083 1897.3553858610603
1318.4045212579192 3274.6357670778684 1764.9817542893584
1246.9337656059067 3084.4956257636695 1662.4989427499763
1477.448010315186 3581.852939849421 1930.5674081191933
1393.3408376327409 3299.283563174153 1778.2665631926116
1483.4524862999097 3499.1067672404643 1885.9684068011288
1650.2648111546875 3877.6264930048414 2089.9851149582323
1447.3492834435099 3349.4594337987337 1805.3106384599487
1580.3463008862632 3563.3670927772073 1920.6038014417534
1453.374778785634 3218.297947429217 1734.6164767962082
1583.4502757332862 3493.825096648403 1883.121662036146
1775.9522987045304 3863.5420380926785 2082.3937955849447
1395.5936894809863 3014.953629634865 1625.016803344369
1700.4258721365281 3598.5782300576143 1939.5820998749723
1274.4234608591 2558.969401853592 1379.247838634184
1501.2446273594066 2948.932747234102 1589.4324937820836
1404.78167304971 2676.9267117429563 1442.8251383854674
1810.8608829389739 3313.368018086316 1785.8578825658992
1467.6421372624382 2677.8069901749664 1443.299595846298
1323.8822011261843 2382.033437019546 1283.8818890072591
-1906.0020876222895 3119.112320684473 1674.138085987628
-1935.7469208778818 3175.5030519058873 1704.4049892371218
-1942.4016078181426 3325.290931712769 1784.80145099359
-2247.324456591348 3971.141025233029 2131.452077272949
-1908.0802765195724 3380.8005577588488 1814.5954338798103
-1840.5046614827327 3305.906617855408 1774.3972030015764
-1667.6388565820303 3003.687542715641 1612.1855183988202
-1837.9704873167466 3357.0107180248147 1801.8265840714303
-1664.9613901508383 3102.371322353116 1665.1525990854345
-1711.2141468622674 3235.41820382864 1736.5635739397092
-1561.5552468542264 3070.6515360410704 1648.1274660075942
-1397.8085781344807 2845.9697163307483 1527.5327733728923
-1600.3416945836766 3268.900200491355 1754.534547744096
-1553.5373306005572 3225.7260468999593 1731.3614499437024
-1564.6975422008695 3326.172036888104 1785.2743713568632
-1560.002406653574 3373.751716356172 1810.8120709736236
-1391.0652449161132 3284.7600936473777 1763.047114283016
-1338.1747917101895 3247.7536762833242 1743.184459025536
-148.82823398448716 376.2319098678729 201.93699511771672
-1201.5245497086032 3075.938167093078 1650.9649881872342
-1190.9732994427468 3101.4902171777812 1664.6796787221613
-1366.066141764647 3572.881485981791 1917.6920730733987
-1315.8654191227026 3456.575602837624 1855.2665851213178
-1112.2779793008422 2986.9465443842837 1603.200031496627
-1026.5875913098357 2899.7171320261587 1556.380915532566
-1154.9242987558891 3277.711252244701 1759.2637513768295
-1142.0074994714485 3320.0043006607616 1781.96392881395
-969.9512248245728 2833.634243876064 1520.9118882870655
-1016.1953218135806 3138.4966345418343 1684.5423339796416
-993.3020193109256 3083.8681136710893 1655.2212714566945
-960.606633209322 3062.721589463059 1643.8711827381342
-947.1769311899816 3036.288434203021 1629.6835718399338
-1013.1645023067026 3338.507509342788 1791.89525644269
-890.9858448139734 3055.672748060382 1640.0878198319474
-853.4879844871483 3015.141909994991 1618.3334831213738
-860.4933892079791 3058.316063586386 1641.5065809217674
-879.5764253733462 3223.96383654929 1730.4156092171556
-850.6421463534834 3239.823729705313 1738.9281757560757
-847.2871991218104 3381.6816629341834 1815.0683542430836
-731.6697566169713 3023.9529617483367 1623.062686754107
-744.0358483584797 3097.0846913011083 1662.3150769057945
-716.7533883442595 3094.4413757751045 1660.8963158159745
-728.5096259164718 3318.2420903100924 1781.0180880874032
-632.1855982273872 2997.519806488299 1608.875075855907
-658.6990123534993 3149.0698966458494 1690.2173783389217
-569.4184321287329 2839.801980103406 1524.2223308299788
-625.6222562947338 3147.3076862951802 1689.271537612375
-110.54770218300061 576.2427846688264 309.2899175807652
-592.4612989756023 3116.4690051584694 1672.719324897808
-588.212620513332 3122.6367413858115 1676.0297674407213
-532.4515116088559 2992.2331754362913 1606.037553676267
-169.18617138953047 1227.3795092410935 658.7780660397643
-158.79480539102528 1422.9848581653741 763.7663866864461
-117.30269695964999 1103.1436795189154 592.0962948182232
-155.3607833966469 1485.5433256141305 797.3437324788533
-149.31315890822538 1452.0613289514158 779.3727586744664
-107.82022067965045 1146.3178331103106 615.269392618617
-131.1018891942041 1420.3415426393703 762.3476255966261
-94.00280604380546 1102.2625743435808 591.62337445495
-92.06737454826452 1102.2625743435808 591.62337445495
-87.32625413284876 1168.3454624936755 627.0924017004505
-87.53103908615918 2844.207505980079 1526.5869326463455
-96.22785616573677 3316.479879959423 1780.0722473608564
-68.23065731692081 3375.513926706841 1811.7579117001703
-54.021553619819755 3236.2993090039745 1737.0364943029824
-35.309283751657794 3094.4413757751045 1660.8963158159745
