# .PCD v.7 - Point Cloud Data file format
VERSION .7
FIELDS x y z
SIZE 4 4 4
TYPE F F F
WIDTH 861
HEIGHT 1
VIEWPOINT 0 0 0 1 0 0 0
POINTS 861
DATA ascii
-54.12740655045134 193.0611564561822 43.94758090955108
-54.04706464643805 195.9863254933971 44.61345334757458
-53.93865529269624 198.91149453061195 45.279325785598076
-53.80214618134218 201.83666356782683 45.94519822362158
-53.63750619655943 204.76183260504172 46.61107066164508
-53.4447054160059 207.6870016422566 47.276943099668586
-53.223715112189645 210.6121706794715 47.942815537692084
-52.97450775380602 213.53733971668638 48.60868797571558
-52.69705700702903 216.46250875390126 49.27456041373909
-52.39133773677509 219.38767779111612 49.94043285176259
-52.057326007916075 222.312846828331 50.606305289786086
-51.69499908646586 225.2380158655459 51.27217772780959
-51.30433544071656 228.16318490276078 51.93805016583309
-50.88531474234362 231.08835393997566 52.60392260385659
-50.43791786747233 234.01352297719055 53.269795041880094
-49.96212689769722 236.93869201440543 53.93566747990359
-49.45792512107488 239.8638610516203 54.60153991792709
-48.92529703306539 242.78903008883518 55.2674123559506
-48.36422833744308 245.71419912605006 55.933284793974096
-47.774705947168485 248.63936816326495 56.5991572319976
-47.15671798521244 251.56453720047983 57.2650296700211
-46.51025378535432 254.48970623769472 57.9309021080446
-45.83530389292792 257.4148752749096 58.596774546068104
-45.13186006553695 260.34004431212446 59.2626469840916
-44.39991527373175 263.2652133493394 59.9285194221151
-43.639463701637325 266.19038238655423 60.59439186013861
-42.850500747556275 269.11555142376915 61.260264298162106
-42.03302302451742 272.040720460984 61.926136736185605
-41.18702836080036 274.96588949819886 62.59200917420911
-40.31251580040642 277.8910585354138 63.25788161223261
-39.40948560349988 280.81622757262863 63.92375405025611
-38.477939246810095 283.74139660984355 64.5896264882796
-37.5178794239842 286.6665656470584 65.25549892630312
-36.529310045915665 289.5917346842733 65.92137136432662
-35.51223624101815 292.5169037214882 66.58724380235012
-34.466664355470236 295.44207275870303 67.25311624037361
-33.39260195342097 298.36724179591795 67.91898867839711
-32.29005781714528 301.2924108331328 68.58486111642063
-31.159041947176117 304.2175798703477 69.25073355444412
-29.9995655623798 307.1427489075626 69.91660599246762
-28.81164110000951 310.0679179447775 70.58247843049112
-27.59528221570275 312.99308698199235 71.24835086851462
-26.35050378345045 315.9182560192072 71.91422330653812
-25.07732189552679 318.8434250564221 72.58009574456163
-23.775753862368084 321.768594093637 73.24596818258513
-22.445818212429494 324.6937631308519 73.91184062060863
-21.087534691984885 327.61893216806675 74.57771305863213
-19.700924264898887 330.54410120528166 75.24358549665563
-18.286009112359615 333.4692702424965 75.90945793467912
-16.842812632559948 336.3944392797114 76.57533037270264
-15.371359440357427 339.3196083169263 77.24120281072614
-13.871675366875289 342.24477735414115 77.90707524874963
-12.34378745908367 345.16994639135606 78.57294768677313
-10.787723979322852 348.0951154285709 79.23882012479663
-9.203514404799478 351.02028446578583 79.90469256282014
-7.591189427043491 353.9454535030007 80.57056500084364
-5.950780951312903 356.87062254021555 81.23643743886714
-4.282322095978369 359.79579157743046 81.90230987689064
-2.585847191849076 362.7209606146453 82.56818231491414
-0.8613917814721446 365.64612965186024 83.23405475293764
0.8910073816071322 368.5712986890751 83.89992719096115
2.671312333637728 371.49646772629 84.56579962898465
4.479483901474623 374.42163676350486 85.23167206700815
6.315481703449963 377.3468058007197 85.89754450503165
8.179264150270075 380.27197483793464 86.56341694305515
10.070788445951578 383.1971438751495 87.22928938107866
11.990010588810588 386.1223129123644 87.89516181910216
13.936885372470336 389.04748194957926 88.56103425712566
15.911366386930322 391.9726509867942 89.22690669514915
17.913406019652122 394.89782002400904 89.89277913317265
19.94295545670558 397.8229890612239 90.55865157119615
21.999964683939936 400.7481580984388 91.22452400921966
24.08438248819391 403.67332713565366 91.89039644724316
26.196156458559393 406.5984961728686 92.55626888526666
28.335232987662287 409.52366521008344 93.22214132329016
30.501557273005872 412.44883424729835 93.88801376131366
32.6950733183294 415.3740032845132 94.55388619933717
34.915723935028026 418.29917232172807 95.21975863736067
37.163450743596655 421.224341358943 95.88563107538417
39.43819417511258 424.14951039615784 96.55150351340767
41.73989347277217 427.07467943337275 97.21737595143117
44.06848669344342 429.9998484705876 97.88324838945466
46.4239107092803 432.9250175078025 98.54912082747818
48.806101209360456 435.8501865450174 99.21499326550168
51.21499270136132 438.77535558223224 99.88086570352517
53.650518513290756 441.70052461944715 100.54673814154867
56.112610795232506 444.625693656662 101.21261057957217
58.60120052115399 447.5508626938769 101.87848301759567
61.11621749073672 450.4760317310918 102.54435545561918
63.65759033124498 453.4012007683067 103.21022789364268
66.22524649944924 456.32636980552155 103.87610033166618
68.81911228356334 459.2515388427364 104.54197276968968
71.43911280524634 462.1767078799513 105.20784520771318
74.08517202161615 465.1018769171662 105.87371764573669
0.4935102891718217 2.9251690372148818 0.6658724380235012
1.0145546171072197 5.8503380744297635 1.3317448760470023
1.5631000184246984 8.775507111644645 1.9976173140705034
2.1391123358296955 11.700676148859527 2.6634897520940046
2.7425562213371513 14.62584518607441 3.329362190117506
3.3733951375325923 17.55101422328929 3.9952346281410067
4.031591358871675 20.476183260504172 4.661107066164508
4.717105973019006 23.401352297719054 5.326979504188009
5.429898882224564 26.326521334933936 5.9928519422115105
6.1699288047398335 29.25169037214882 6.658724380235012
6.93715327627109 32.1768594093637 7.324596818258513
7.731528651472526 35.10202844657858 7.990469256282013
8.553010105476847 38.027197483793465 8.656341694305516
9.401551635464063 40.952366521008344 9.322214132329016
10.277106062269958 43.87753555822323 9.988086570352518
11.179625032030751 46.80270459543811 10.653959008376019
12.109059017868157 49.72787363265299 11.319831446399519
13.06535732161115 52.65304266986787 11.985703884423021
14.048468075555677 55.57821170708275 12.651576322446521
15.058338244264307 58.50338074429764 13.317448760470024
16.094913626401066 61.428549781512515 13.983321198493524
17.15813885660738 64.3537188187274 14.649193636517026
18.247957407412578 67.27888785594229 15.315066074540526
19.364311591185526 70.20405689315716 15.980938512564027
20.5071425621218 73.12922593037204 16.64681095058753
21.676390318268492 76.05439496758693 17.31268338861103
22.871993703589222 78.9795640048018 17.97855582663453
24.09389041006289 81.90473304201669 18.644428264658032
25.3420169798239 84.82990207923157 19.310300702681534
26.616308807337298 87.75507111644646 19.976173140705036
27.91670014161104 90.68024015366133 20.642045578728535
29.243124088448795 93.60540919087622 21.307918016752037
30.595512612735302 96.5305782280911 21.97379045477554
31.973796540763747 99.45574726530597 22.639662892799038
33.37790556259707 102.38091630252086 23.30553533082254
34.807768234466224 105.30608533973574 23.971407768846042
36.26331198120895 108.23125437695063 24.637280206869544
37.74446309874022 111.1564234141655 25.303152644893043
39.25114675656524 114.08159245138039 25.969025082916545
40.78328700032339 117.00676148859527 26.634897520940047
42.34080675437451 119.93193052581015 27.300769958963546
43.92362782441802 122.85709956302503 27.966642396987048
45.53167090014844 125.78226860023992 28.63251483501055
47.164855557951626 128.7074376374548 29.298387273034052
48.823100263631005 131.6326066746697 29.96425971105755
50.50632237517663 134.55777571188457 30.630132149081053
52.2144381455661 137.48294474909943 31.296004587104555
53.94736272560159 140.40811378631432 31.961877025128054
55.705010166787496 143.3332828235292 32.62774946315156
57.4872934242371 146.2584518607441 33.29362190117506
59.29412435962282 149.18362089795897 33.95949433919856
61.12541374415436 152.10878993517386 34.62536677722206
62.98107126160007 155.03395897238875 35.29123921524556
64.86100551133906 157.9591280096036 35.95711165326906
66.7651240114485 160.8842970468185 36.622984091292565
68.693333201832 163.80946608403337 37.288856529316064
70.64553844737506 166.73463512124826 37.95472896733956
72.62164404114404 169.65980415846315 38.62060140536307
74.62155320761485 172.58497319567803 39.28647384338657
76.64516810593672 175.51014223289292 39.95234628141007
78.69238983323639 178.43531127010777 40.61821871943357
80.76311842794891 181.36048030732266 41.28409115745707
82.85725287319227 184.28564934453755 41.949963595480575
84.97469110016746 187.21081838175243 42.615836033504074
87.11532999160202 190.13598741896732 43.28170847152757
89.27906538522197 193.0611564561822 43.94758090955108
91.46579207725824 195.9863254933971 44.61345334757458
93.67540382599344 198.91149453061195 45.279325785598076
95.90779335533358 201.83666356782683 45.94519822362158
98.16285235842322 204.76183260504172 46.61107066164508
100.44047150128823 207.6870016422566 47.276943099668586
102.74054042651247 210.6121706794715 47.942815537692084
105.06294775695471 213.53733971668638 48.60868797571558
107.40758109948922 216.46250875390126 49.27456041373909
109.77432704879001 219.38767779111612 49.94043285176259
112.16307119114181 222.312846828331 50.606305289786086
114.57369810828409 225.2380158655459 51.27217772780959
117.00609138129546 228.16318490276078 51.93805016583309
119.46013359450053 231.08835393997566 52.60392260385659
-132.34240349800575 234.10613983863547 52.86128346770682
-133.0517512606419 237.0324665866184 53.522049511053154
-133.73484966061108 239.95879333460135 54.18281555439949
-134.39161299090324 242.8851200825843 54.843581597745825
-135.02195662267525 245.81144683056723 55.50434764109216
-135.62579700861502 248.7377735785502 56.165113684438495
-136.2030516862601 251.66410032653312 56.82587972778483
-136.7536392812889 254.59042707451607 57.486645771131165
-137.27747951077794 257.516753822499 58.1474118144775
-137.7744931864158 260.443080570482 58.808177857823836
-138.24460221769456 263.3694073184649 59.46894390117017
-138.6877296150532 266.29573406644784 60.129709944516506
-139.1037994929991 269.2220608144308 60.79047598786284
-139.49273707318173 272.14838756241375 61.451242031209176
-139.85446868743978 275.0747143103967 62.11200807455551
-140.18892178081256 278.0010410583796 62.77277411790185
-140.49602491450779 280.92736780636255 63.43354016124819
-140.77570776884642 283.8536945543455 64.09430620459452
-141.0279011461589 286.78002130232846 64.75507224794086
-141.25253697365446 289.7063480503114 65.41583829128719
-141.44954830625468 292.6326747982943 66.07660433463353
-141.61886932938194 295.5590015462773 66.73737037797986
-141.76043536172565 298.4853282942602 67.3981364213262
-141.87418285795758 301.4116550422432 68.05890246467253
-141.96004941142596 304.3379817902261 68.71966850801887
-142.01797375679902 307.26430853820904 69.3804345513652
-142.04789577268193 310.190635286192 70.04120059471154
-142.04975648419713 313.11696203417495 70.70196663805787
-142.02349806551837 316.0432887821579 71.36273268140421
-141.96906384238306 318.9696155301408 72.02349872475054
-141.88639829455286 321.89594227812375 72.68426476809688
-141.7754470582474 324.8222690261067 73.34503081144321
-141.63615692854177 327.74859577408967 74.00579685478955
-141.46847586171586 330.6749225220726 74.66656289813588
-141.27235297758324 333.6012492700555 75.32732894148222
-141.04773856176527 336.5275760180385 75.98809498482855
-140.7945840679459 339.45390276602143 76.64886102817489
-140.5128421200723 342.3802295140044 77.30962707152122
-140.2024665145295 345.30655626198734 77.97039311486756
-139.8634122222779 348.23288300997024 78.63115915821389
-139.4956353909414 351.1592097579532 79.29192520156023
-139.09909334687578 354.08553650593615 79.95269124490656
-138.6737445971819 357.0118632539191 80.6134572882529
-138.21954883169263 359.93819000190206 81.27422333159923
-137.73646692492267 362.86451674988496 81.93498937494557
-137.2244609379682 365.7908434978679 82.5957554182919
-136.6834941203868 368.71717024585087 83.25652146163824
-136.1135309120215 371.6434969938338 83.91728750498457
-135.5145369447987 374.5698237418168 84.57805354833091
-134.88647904448834 377.4961504897997 85.23881959167726
-134.2293252324134 380.42247723778263 85.89958563502358
-133.54304472714028 383.3488039857656 86.56035167836993
-132.8276079461102 386.27513073374854 87.22111772171625
-132.08298650725342 389.20145748173144 87.8818837650626
-131.3091532305454 392.1277842297144 88.54264980840892
-130.50608213953743 395.05411097769735 89.20341585175527
-129.67374846284937 397.9804377256803 89.8641818951016
-128.81212863561018 400.90676447366326 90.52494793844794
-127.92120030088017 403.83309122164616 91.18571398179427
-127.0009423110144 406.7594179696291 91.84648002514061
-126.05133472900084 409.68574471761207 92.50724606848694
-125.07235882976038 412.612071465595 93.16801211183328
-124.0639971013936 415.538398213578 93.8287781551796
-123.0262332464102 418.4647249615609 94.48954419852595
-121.95905218289687 421.39105170954383 95.15031024187228
-120.86244004566898 424.3173784575268 95.81107628521862
-119.73638418736205 427.24370520550974 96.47184232856495
-118.58087317949841 430.1700319534927 97.13260837191129
-117.39589681351534 433.0963587014756 97.79337441525762
-116.18144610173891 436.02268544945855 98.45414045860396
-114.93751327834163 438.9490121974415 99.11490650195029
-113.66409180023791 441.87533894542446 99.77567254529663
-112.36117634795592 444.8016656934074 100.43643858864296
-111.02876282647016 447.7279924413903 101.0972046319893
-109.66684836597933 450.65431918937327 101.75797067533563
-108.27543132266852 453.5806459373562 102.41873671868197
-106.85451127940668 456.5069726853392 103.0795027620283
-105.40408904643039 459.4332994333221 103.74026880537464
-103.9241666619643 462.35962618130503 104.40103484872097
-102.41474739281816 465.285952929288 105.06180089206731
-0.6168163814530521 2.9263267479829436 0.6607660433463353
-1.2062908566115824 5.852653495965887 1.3215320866926705
-1.7683842301107973 8.77898024394883 1.982298130039006
-2.3030584922591943 11.705306991931774 2.643064173385341
-2.8102768204216755 14.631633739914717 3.303830216731676
-3.290003580363658 17.55796048789766 3.964596260078012
-3.742204327557244 20.484287235880604 4.625362303424347
-4.1668458084479925 23.41061398386355 5.286128346770682
-4.563895961683511 26.33694073184649 5.946894390117017
-4.933323919303528 29.263267479829434 6.607660433463352
-5.2751000078902255 32.18959422781238 7.268426476809688
-5.589195749681253 35.11592097579532 7.929192520156024
-5.87558386364222 38.04224772377826 8.589958563502359
-6.134238266502182 40.96857447176121 9.250724606848694
-6.365134073748383 43.89490121974415 9.911490650195029
-6.568247600583314 46.8212279677271 10.572256693541364
-6.743556362843006 49.74755471571004 11.2330227368877
-6.891039077874648 52.67388146369298 11.893788780234035
-7.010675665377755 55.60020821167593 12.55455482358037
-7.10244724820363 58.52653495965887 13.215320866926705
-7.166336153117574 61.45286170764181 13.87608691027304
-7.20232591152217 64.37918845562476 14.536852953619375
-7.210401260139238 67.3055152036077 15.19761899696571
-7.190548141656027 70.23184195159064 15.858385040312047
-7.142753705328524 73.15816869957358 16.519151083658382
-7.067006307549502 76.08449544755652 17.179917127004718
-6.963295512373591 79.01082219553948 17.840683170351053
-6.831612092005672 81.93714894352242 18.501449213697388
-6.671948027250247 84.86347569150536 19.162215257043723
-6.484296507918569 87.7898024394883 19.822981300390058
-6.2686519332010295 90.71612918747124 20.483747343736393
-6.0250099119956815 93.6424559354542 21.14451338708273
-5.75336726320056 96.56878268343714 21.805279430429064
-5.453722015966902 99.49510943142008 22.4660454737754
-5.126073409909549 102.42143617940302 23.126811517121734
-4.77042189528334 105.34776292738596 23.78757756046807
-4.386769133114408 108.2740896753689 24.448343603814404
-3.975117995298131 111.20041642335185 25.10910964716074
-3.5354725646520273 114.1267431713348 25.769875690507074
-3.0678381349331594 117.05306991931774 26.43064173385341
-2.5722212108163895 119.97939666730068 27.091407777199745
-2.048629507829032 122.90572341528362 27.75217382054608
-1.4970719522526006 125.83205016326656 28.412939863892415
-0.9175586809787043 128.7583769112495 29.07370590723875
-0.310101041329972 131.68470365923244 29.734471950585085
0.3252884091581594 134.6110304072154 30.39523799393142
0.9885959029997891 137.53735715519835 31.056004037277756
1.6798064630529839 140.46368390318128 31.716770080624094
2.3989039028608388 143.39001065116423 32.37753612397043
3.1458708270269518 146.31633739914716 33.038302167316765
3.9206886316300036 149.2426641471301 33.6990682106631
4.723337504682958 152.16899089511304 34.359834254009435
5.553796426623517 155.095317643096 35.02060029735577
6.412043170852518 158.02164439107895 35.681366340702105
7.298054304302716 160.94797113906188 36.34213238404844
8.211805188055237 163.87429788704483 37.002898427394776
9.153269977989607 166.80062463502776 37.66366447074111
10.122421625472802 169.72695138301071 38.324430514087446
11.119231878093554 172.65327813099367 38.98519655743378
12.143671280426695 175.5796048789766 39.645962600780116
13.195709174846511 178.50593162695955 40.30672864412645
14.275313702369175 181.43225837494248 40.96749468747279
15.382451803543816 184.35858512292543 41.62826073081912
16.51708921937629 187.2849118709084 42.28902677416546
17.679190492291845 190.21123861889131 42.94979281751179
18.868718967143582 193.13756536687427 43.61055886085813
20.08563679224972 196.0638921148572 44.27132490420446
21.32990492048014 198.99021886284015 44.9320909475508
22.601483110374975 201.91654561082308 45.59285699089713
23.90032992730195 204.84287235880603 46.25362303424347
25.226402744659893 207.769199106789 46.9143890775898
26.579657745110136 210.69552585477192 47.57515512093614
27.960049921857784 213.62185260275487 48.23592116428247
29.3675330799644 216.5481793507378 48.89668720762881
30.802059837699186 219.47450609872075 49.55745325097514
32.26358162793681 222.4008328467037 50.21821929432148
33.75204869958202 225.32715959468663 50.878985337667814
35.267410119045664 228.2534863426696 51.53975138101415
36.809613771746385 231.17981309065252 52.200517424360484
38.378606363663046 234.10613983863547 52.86128346770682
39.97433342291756 237.0324665866184 53.522049511053154
41.596739301396006 239.95879333460135 54.18281555439949
43.245767176416656 242.8851200825843 54.843581597745825
44.921359052423604 245.81144683056723 55.50434764109216
46.623455762731574 248.7377735785502 56.165113684438495
48.35199697130049 251.66410032653312 56.82587972778483
50.106921174547956 254.59042707451607 57.486645771131165
51.88816570320906 257.516753822499 58.1474118144775
53.695666724220686 260.443080570482 58.808177857823836
55.5293592426585 263.3694073184649 59.46894390117017
57.3891771036972 266.29573406644784 60.129709944516506
59.2750529946227 269.2220608144308 60.79047598786284
61.18691844687282 272.14838756241375 61.451242031209176
63.124703838115856 275.0747143103967 62.11200807455551
65.0883383943764 278.0010410583796 62.77277411790185
67.07775019218451 280.92736780636255 63.43354016124819
69.09286616077713 283.8536945543455 64.09430620459452
71.13361208432737 286.78002130232846 64.75507224794086
73.19991260421116 289.7063480503114 65.41583829128719
75.29169122132154 292.6326747982943 66.07660433463353
77.40887029840513 295.5590015462773 66.73737037797986
79.55137106245239 298.4853282942602 67.3981364213262
81.7191136071085 301.4116550422432 68.05890246467253
83.91201689513727 304.3379817902261 68.71966850801887
86.12999876091155 307.26430853820904 69.3804345513652
88.37297591294077 310.190635286192 70.04120059471154
90.64086393644618 313.11696203417495 70.70196663805787
92.93357729595685 316.0432887821579 71.36273268140421
95.2510293379588 318.9696155301408 72.02349872475054
97.5931322935701 321.89594227812375 72.68426476809688
99.95979728125243 324.8222690261067 73.34503081144321
102.35093430957077 327.74859577408967 74.00579685478955
104.7664522799724 330.6749225220726 74.66656289813588
107.20625898961963 333.6012492700555 75.32732894148222
109.67026113424753 336.5275760180385 75.98809498482855
112.15836431105784 339.45390276602143 76.64886102817489
114.67047302166074 342.3802295140044 77.30962707152122
117.20649067503541 345.30655626198734 77.97039311486756
119.76631959054522 348.23288300997024 78.63115915821389
122.34986100097018 351.1592097579532 79.29192520156023
124.95701505559306 354.08553650593615 79.95269124490656
127.58768082330948 357.0118632539191 80.6134572882529
130.24175629577346 359.93819000190206 81.27422333159923
132.91913839059094 362.86451674988496 81.93498937494557
135.61972295453057 365.7908434978679 82.5957554182919
138.34340476678815 368.71717024585087 83.25652146163824
141.09007754227437 371.6434969938338 83.91728750498457
143.85963393493756 374.5698237418168 84.57805354833091
146.65196554113442 377.4961504897997 85.23881959167726
149.46696290301645 380.42247723778263 85.89958563502358
152.30451551197234 383.3488039857656 86.56035167836993
155.16451181208413 386.27513073374854 87.22111772171625
158.04683920363792 389.20145748173144 87.8818837650626
160.95138404665616 392.1277842297144 88.54264980840892
163.87803166446452 395.05411097769735 89.20341585175527
166.8266663473063 397.9804377256803 89.8641818951016
169.7971713559716 400.90676447366326 90.52494793844794
172.78942892548062 403.83309122164616 91.18571398179427
175.80332026878753 406.7594179696291 91.84648002514061
178.83872558051903 409.68574471761207 92.50724606848694
181.89552404075954 412.612071465595 93.16801211183328
184.9735938188507 415.538398213578 93.8287781551796
188.07281207724594 418.4647249615609 94.48954419852595
191.1930549753768 421.39105170954383 95.15031024187228
194.33419767357375 424.3173784575268 95.81107628521862
197.4961143370062 427.24370520550974 96.47184232856495
200.67867813965614 430.1700319534927 97.13260837191129
203.88176126833866 433.0963587014756 97.79337441525762
207.10523492673485 436.02268544945855 98.45414045860396
210.34896933947832 438.9490121974415 99.11490650195029
213.61283375626087 441.87533894542446 99.77567254529663
216.89669645597078 444.8016656934074 100.43643858864296
220.2004247508777 447.7279924413903 101.0972046319893
223.52388499082892 450.65431918937327 101.75797067533563
226.86694256749936 453.5806459373562 102.41873671868197
230.22946191865952 456.5069726853392 103.0795027620283
233.61130653247534 459.4332994333221 103.74026880537464
237.01233895185493 462.35962618130503 104.40103484872097
240.43242077880487 465.285952929288 105.06180089206731
-1.6426142130943444 2.927475544652231 0.6556576358612186
-3.261825601478319 5.854951089304462 1.3113152717224372
-4.857528180394093 8.782426633956693 1.966972907583656
-6.4296169820321545 11.709902178608925 2.6226305434448745
-7.977988059330296 14.637377723261157 3.2782881793060934
-9.502538489739077 17.564853267913385 3.933945815167312
-11.003166378954282 20.492328812565617 4.58960345102853
-12.479770864616176 23.41980435721785 5.245261086889749
-13.932252119974631 26.34727990187008 5.900918722750967
-15.360511357521617 29.274755446522313 6.556576358612187
-16.76445083258885 32.202230991174545 7.212233994473405
-18.143973846912925 35.12970653582677 7.867891630334624
-19.49898475216519 38.057182080479 8.523549266195843
-20.829388953448476 40.984657625131234 9.17920690205706
-22.13509291275988 43.912133169783466 9.83486453791828
-23.416004152417965 46.8396087144357 10.490522173779498
-24.67203125845762 49.76708425908793 11.146179809640717
-25.90308388398837 52.69455980374016 11.801837445501935
-27.10907275251954 55.622035348392394 12.457495081363154
-28.289909661250938 58.549510893044626 13.113152717224374
-29.44550748432694 61.47698643769685 13.768810353085591
-30.575780176058476 64.40446198234909 14.42446798894681
-31.680642774107035 67.33193752700132 15.080125624808028
-32.760011402636756 70.25941307165354 15.735783260669248
-33.813803275428334 73.18688861630578 16.391440896530465
-34.841936698959714 76.114364160958 17.047098532391686
-35.84433107545161 79.04183970561024 17.702756168252904
-36.820906905875134 81.96931525026247 18.35841380411412
-37.7715857929276 84.89679079491471 19.01407143997534
-38.696290443968955 87.82426633956693 19.66972907583656
-39.59494467392495 90.75174188421917 20.325386711697778
-40.46747340815479 93.6792174288714 20.981044347558996
-41.31380268527985 96.60669297352362 21.636701983420217
-42.13385965998096 99.53416851817586 22.292359619281434
-42.92757260575465 102.46164406282809 22.948017255142652
-43.69487091763838 105.38911960748032 23.60367489100387
-44.43568511489465 108.31659515213255 24.25933252686509
-45.14994684366204 111.24407069678479 24.91499016272631
-45.83758887957006 114.17154624143701 25.570647798587526
-46.4985451303138 117.09902178608925 26.226305434448747
-47.13275063819758 120.02649733074148 26.881963070309965
-47.74014158263639 122.9539728753937 27.537620706171182
-48.32065528262425 125.88144842004594 28.1932783420324
-48.87423019916611 128.80892396469818 28.84893597789362
-49.400805937668544 131.7363995093504 29.50459361375484
-49.90032325029994 134.66387505400263 30.160251249616056
-50.372724038307176 137.59135059865486 30.815908885477278
-50.81795135429951 140.51882614330708 31.471566521338495
-51.23594940449558 143.44630168795933 32.12722415719971
-51.626663550928235 146.37377723261156 32.78288179306093
-51.990040313619495 149.30125277726378 33.43853942892215
-52.32602737271007 152.228728321916 34.09419706478337
-52.63457357055964 155.15620386656826 34.74985470064459
-52.915628913801875 158.0836794112205 35.40551233650581
-53.1691445753671 161.0111549558727 36.061169972367026
-53.39507289646739 163.93863050052494 36.71682760822824
-53.59336738853854 166.86610604517716 37.37248524408946
-53.76398273515254 169.79358158982942 38.02814287995068
-53.90687479388381 172.72105713448164 38.6838005158119
-54.022000598143215 175.64853267913387 39.33945815167312
-54.10931835897435 178.5760082237861 39.99511578753434
-54.168787466805654 181.50348376843834 40.650773423395556
-54.20036849317373 184.43095931309057 41.306431059256774
-54.20402319239861 187.3584348577428 41.96208869511799
-54.179714503230926 190.28591040239502 42.61774633097921
-54.12740655045134 193.21338594704724 43.273403966840434
-54.04706464643805 196.1408614916995 43.92906160270165
-53.93865529269624 199.06833703635172 44.58471923856287
-53.80214618134218 201.99581258100395 45.240376874424086
-53.63750619655943 204.92328812565617 45.896034510285304
-53.4447054160059 207.85076367030842 46.55169214614652
-53.223715112189645 210.77823921496065 47.20734978200774
-52.97450775380602 213.70571475961287 47.863007417868964
-52.69705700702903 216.6331903042651 48.51866505373018
-52.39133773677509 219.56066584891732 49.1743226895914
-52.057326007916075 222.48814139356958 49.82998032545262
-51.69499908646586 225.4156169382218 50.485637961313834
-51.30433544071656 228.34309248287403 51.14129559717505
-50.88531474234362 231.27056802752625 51.79695323303627
-50.43791786747233 234.1980435721785 52.452610868897494
-49.96212689769722 237.12551911683073 53.10826850475871
-49.45792512107488 240.05299466148296 53.76392614061993
-48.92529703306539 242.98047020613518 54.41958377648115
-48.36422833744308 245.9079457507874 55.075241412342365
-47.774705947168485 248.83542129543966 55.73089904820358
-47.15671798521244 251.76289684009188 56.3865566840648
-46.51025378535432 254.6903723847441 57.042214319926025
-45.83530389292792 257.61784792939636 57.69787195578724
-45.13186006553695 260.5453234740486 58.35352959164846
-44.39991527373175 263.4727990187008 59.00918722750968
-43.639463701637325 266.40027456335304 59.664844863370895
-42.850500747556275 269.32775010800526 60.32050249923211
-42.03302302451742 272.2552256526575 60.97616013509333
-41.18702836080036 275.1827011973097 61.631817770954555
-40.31251580040642 278.11017674196194 62.28747540681577
-39.40948560349988 281.03765228661416 62.94313304267699
-38.477939246810095 283.96512783126644 63.59879067853821
-37.5178794239842 286.89260337591867 64.25444831439943
-36.529310045915665 289.8200789205709 64.91010595026064
-35.51223624101815 292.7475544652231 65.56576358612186
-34.466664355470236 295.67503000987534 66.22142122198308
-33.39260195342097 298.60250555452757 66.8770788578443
-32.29005781714528 301.5299810991798 67.53273649370551
-31.159041947176117 304.457456643832 68.18839412956675
-29.9995655623798 307.38493218848424 68.84405176542796
-28.81164110000951 310.3124077331365 69.49970940128918
-27.59528221570275 313.23988327778875 70.1553670371504
-26.35050378345045 316.167358822441 70.81102467301162
-25.07732189552679 319.0948343670932 71.46668230887283
-23.775753862368084 322.0223099117454 72.12233994473405
-22.445818212429494 324.94978545639765 72.77799758059527
-21.087534691984885 327.8772610010499 73.43365521645649
-19.700924264898887 330.8047365457021 74.0893128523177
-18.286009112359615 333.7322120903543 74.74497048817892
-16.842812632559948 336.6596876350066 75.40062812404014
-15.371359440357427 339.58716317965883 76.05628575990136
-13.871675366875289 342.51463872431106 76.71194339576257
-12.34378745908367 345.4421142689633 77.3676010316238
-10.787723979322852 348.3695898136155 78.02325866748502
-9.203514404799478 351.29706535826773 78.67891630334624
-7.591189427043491 354.22454090291995 79.33457393920746
-5.950780951312903 357.1520164475722 79.99023157506868
-4.282322095978369 360.0794919922244 80.6458892109299
-2.585847191849076 363.0069675368767 81.30154684679111
-0.8613917814721446 365.9344430815289 81.95720448265233
0.8910073816071322 368.86191862618114 82.61286211851355
2.671312333637728 371.78939417083336 83.26851975437476
4.479483901474623 374.7168697154856 83.92417739023598
6.315481703449963 377.6443452601378 84.5798350260972
8.179264150270075 380.57182080479004 85.23549266195842
10.070788445951578 383.49929634944226 85.89115029781964
11.990010588810588 386.4267718940945 86.54680793368087
13.936885372470336 389.35424743874677 87.20246556954208
15.911366386930322 392.281722983399 87.8581232054033
17.913406019652122 395.2091985280512 88.51378084126452
19.94295545670558 398.13667407270344 89.16943847712574
21.999964683939936 401.06414961735567 89.82509611298696
24.08438248819391 403.9916251620079 90.48075374884817
26.196156458559393 406.9191007066601 91.13641138470939
28.335232987662287 409.84657625131234 91.79206902057061
30.501557273005872 412.77405179596457 92.44772665643183
32.6950733183294 415.70152734061685 93.10338429229304
34.915723935028026 418.6290028852691 93.75904192815426
37.163450743596655 421.5564784299213 94.41469956401548
39.43819417511258 424.4839539745735 95.0703571998767
41.73989347277217 427.41142951922575 95.72601483573793
44.06848669344342 430.338905063878 96.38167247159915
46.4239107092803 433.2663806085302 97.03733010746036
48.806101209360456 436.1938561531824 97.69298774332158
51.21499270136132 439.12133169783465 98.3486453791828
53.650518513290756 442.04880724248693 99.00430301504402
56.112610795232506 444.97628278713916 99.65996065090523
58.60120052115399 447.9037583317914 100.31561828676645
61.11621749073672 450.8312338764436 100.97127592262767
63.65759033124498 453.75870942109583 101.62693355848889
66.22524649944924 456.68618496574805 102.2825911943501
68.81911228356334 459.6136605104003 102.93824883021132
71.43911280524634 462.5411360550525 103.59390646607254
74.08517202161615 465.46861159970473 104.24956410193376
0.4935102891718217 2.927475544652231 0.6556576358612186
1.0145546171072197 5.854951089304462 1.3113152717224372
1.5631000184246984 8.782426633956693 1.966972907583656
2.1391123358296955 11.709902178608925 2.6226305434448745
2.7425562213371513 14.637377723261157 3.2782881793060934
3.3733951375325923 17.564853267913385 3.933945815167312
4.031591358871675 20.492328812565617 4.58960345102853
4.717105973019006 23.41980435721785 5.245261086889749
5.429898882224564 26.34727990187008 5.900918722750967
6.1699288047398335 29.274755446522313 6.556576358612187
6.93715327627109 32.202230991174545 7.212233994473405
7.731528651472526 35.12970653582677 7.867891630334624
8.553010105476847 38.057182080479 8.523549266195843
9.401551635464063 40.984657625131234 9.17920690205706
10.277106062269958 43.912133169783466 9.83486453791828
11.179625032030751 46.8396087144357 10.490522173779498
12.109059017868157 49.76708425908793 11.146179809640717
13.06535732161115 52.69455980374016 11.801837445501935
14.048468075555677 55.622035348392394 12.457495081363154
15.058338244264307 58.549510893044626 13.113152717224374
16.094913626401066 61.47698643769685 13.768810353085591
17.15813885660738 64.40446198234909 14.42446798894681
18.247957407412578 67.33193752700132 15.080125624808028
19.364311591185526 70.25941307165354 15.735783260669248
20.5071425621218 73.18688861630578 16.391440896530465
21.676390318268492 76.114364160958 17.047098532391686
22.871993703589222 79.04183970561024 17.702756168252904
24.09389041006289 81.96931525026247 18.35841380411412
25.3420169798239 84.89679079491471 19.01407143997534
26.616308807337298 87.82426633956693 19.66972907583656
27.91670014161104 90.75174188421917 20.325386711697778
29.243124088448795 93.6792174288714 20.981044347558996
30.595512612735302 96.60669297352362 21.636701983420217
31.973796540763747 99.53416851817586 22.292359619281434
33.37790556259707 102.46164406282809 22.948017255142652
34.807768234466224 105.38911960748032 23.60367489100387
36.26331198120895 108.31659515213255 24.25933252686509
37.74446309874022 111.24407069678479 24.91499016272631
39.25114675656524 114.17154624143701 25.570647798587526
40.78328700032339 117.09902178608925 26.226305434448747
42.34080675437451 120.02649733074148 26.881963070309965
43.92362782441802 122.9539728753937 27.537620706171182
45.53167090014844 125.88144842004594 28.1932783420324
47.164855557951626 128.80892396469818 28.84893597789362
48.823100263631005 131.7363995093504 29.50459361375484
50.50632237517663 134.66387505400263 30.160251249616056
52.2144381455661 137.59135059865486 30.815908885477278
53.94736272560159 140.51882614330708 31.471566521338495
55.705010166787496 143.44630168795933 32.12722415719971
57.4872934242371 146.37377723261156 32.78288179306093
59.29412435962282 149.30125277726378 33.43853942892215
61.12541374415436 152.228728321916 34.09419706478337
62.98107126160007 155.15620386656826 34.74985470064459
64.86100551133906 158.0836794112205 35.40551233650581
66.7651240114485 161.0111549558727 36.061169972367026
68.693333201832 163.93863050052494 36.71682760822824
70.64553844737506 166.86610604517716 37.37248524408946
72.62164404114404 169.79358158982942 38.02814287995068
74.62155320761485 172.72105713448164 38.6838005158119
76.64516810593672 175.64853267913387 39.33945815167312
78.69238983323639 178.5760082237861 39.99511578753434
80.76311842794891 181.50348376843834 40.650773423395556
82.85725287319227 184.43095931309057 41.306431059256774
84.97469110016746 187.3584348577428 41.96208869511799
87.11532999160202 190.28591040239502 42.61774633097921
89.27906538522197 193.21338594704724 43.273403966840434
91.46579207725824 196.1408614916995 43.92906160270165
93.67540382599344 199.06833703635172 44.58471923856287
95.90779335533358 201.99581258100395 45.240376874424086
98.16285235842322 204.92328812565617 45.896034510285304
100.44047150128823 207.85076367030842 46.55169214614652
102.74054042651247 210.77823921496065 47.20734978200774
105.06294775695471 213.70571475961287 47.863007417868964
107.40758109948922 216.6331903042651 48.51866505373018
109.77432704879001 219.56066584891732 49.1743226895914
112.16307119114181 222.48814139356958 49.82998032545262
114.57369810828409 225.4156169382218 50.485637961313834
117.00609138129546 228.34309248287403 51.14129559717505
119.46013359450053 231.27056802752625 51.79695323303627
-132.34240349800575 234.28923389786527 52.04377849033805
-133.0517512606419 237.2178493215886 52.69432572146728
-133.73484966061108 240.14646474531193 53.3448729525965
-134.39161299090324 243.07508016903523 53.99542018372573
-135.02195662267525 246.00369559275856 54.64596741485495
-135.62579700861502 248.93231101648186 55.29651464598418
-136.2030516862601 251.8609264402052 55.947061877113406
-136.7536392812889 254.7895418639285 56.59760910824263
-137.27747951077794 257.7181572876518 57.24815633937185
-137.7744931864158 260.64677271137515 57.898703570501084
-138.24460221769456 263.5753881350984 58.54925080163031
-138.6877296150532 266.50400355882175 59.19979803275953
-139.1037994929991 269.4326189825451 59.850345263888755
-139.49273707318173 272.3612344062684 60.500892495017986
-139.85446868743978 275.28984982999174 61.15143972614721
-140.18892178081256 278.218465253715 61.80198695727643
-140.49602491450779 281.14708067743834 62.452534188405664
-140.77570776884642 284.07569610116167 63.10308141953489
-141.0279011461589 287.004311524885 63.75362865066411
-141.25253697365446 289.93292694860827 64.40417588179334
-141.44954830625468 292.8615423723316 65.05472311292256
-141.61886932938194 295.7901577960549 65.70527034405178
-141.76043536172565 298.71877321977826 66.35581757518102
-141.87418285795758 301.64738864350153 67.00636480631024
-141.96004941142596 304.57600406722486 67.65691203743947
-142.01797375679902 307.5046194909482 68.30745926856869
-142.04789577268193 310.4332349146715 68.95800649969792
-142.04975648419713 313.36185033839485 69.60855373082714
-142.02349806551837 316.2904657621181 70.25910096195636
-141.96906384238306 319.21908118584145 70.90964819308559
-141.88639829455286 322.1476966095648 71.56019542421483
-141.7754470582474 325.0763120332881 72.21074265534405
-141.63615692854177 328.0049274570114 72.86128988647327
-141.46847586171586 330.9335428807347 73.5118371176025
-141.27235297758324 333.86215830445803 74.16238434873172
-141.04773856176527 336.79077372818136 74.81293157986094
-140.7945840679459 339.71938915190464 75.46347881099017
-140.5128421200723 342.64800457562797 76.1140260421194
-140.2024665145295 345.5766199993513 76.76457327324863
-139.8634122222779 348.5052354230746 77.41512050437785
-139.4956353909414 351.43385084679795 78.06566773550708
-139.09909334687578 354.3624662705212 78.7162149666363
-138.6737445971819 357.29108169424455 79.36676219776552
-138.21954883169263 360.2196971179679 80.01730942889475
-137.73646692492267 363.1483125416912 80.66785666002397
-137.2244609379682 366.0769279654145 81.31840389115321
-136.6834941203868 369.0055433891378 81.96895112228243
-136.1135309120215 371.93415881286114 82.61949835341166
-135.5145369447987 374.86277423658447 83.27004558454088
-134.88647904448834 377.7913896603078 83.9205928156701
-134.2293252324134 380.7200050840311 84.57114004679933
-133.54304472714028 383.6486205077544 85.22168727792855
-132.8276079461102 386.57723593147773 85.87223450905779
-132.08298650725342 389.50585135520106 86.52278174018701
-131.3091532305454 392.43446677892433 87.17332897131624
-130.50608213953743 395.36308220264766 87.82387620244546
-129.67374846284937 398.291697626371 88.47442343357469
-128.81212863561018 401.2203130500943 89.12497066470391
-127.92120030088017 404.1489284738176 89.77551789583313
-127.0009423110144 407.0775438975409 90.42606512696236
-126.05133472900084 410.00615932126425 91.0766123580916
-125.07235882976038 412.9347747449876 91.72715958922082
-124.0639971013936 415.8633901687109 92.37770682035004
-123.0262332464102 418.7920055924342 93.02825405147927
-121.95905218289687 421.7206210161575 93.67880128260849
-120.86244004566898 424.64923643988084 94.32934851373771
-119.73638418736205 427.57785186360417 94.97989574486694
-118.58087317949841 430.50646728732744 95.63044297599617
-117.39589681351534 433.43508271105077 96.2809902071254
-116.18144610173891 436.3636981347741 96.93153743825462
-114.93751327834163 439.2923135584974 97.58208466938385
-113.66409180023791 442.2209289822207 98.23263190051307
-112.36117634795592 445.149544405944 98.8831791316423
-111.02876282647016 448.07815982966736 99.53372636277152
-109.66684836597933 451.0067752533907 100.18427359390074
-108.27543132266852 453.935390677114 100.83482082502998
-106.85451127940668 456.8640061008373 101.4853680561592
-105.40408904643039 459.7926215245606 102.13591528728843
-103.9241666619643 462.72123694828394 102.78646251841765
-102.41474739281816 465.6498523720073 103.43700974954687
-0.6168163814530521 2.928615423723316 0.6505472311292256
-1.2062908566115824 5.857230847446632 1.3010944622584513
-1.7683842301107973 8.785846271169948 1.951641693387677
-2.3030584922591943 11.714461694893265 2.6021889245169025
-2.8102768204216755 14.64307711861658 3.252736155646128
-3.290003580363658 17.571692542339896 3.903283386775354
-3.742204327557244 20.50030796606321 4.5538306179045795
-4.1668458084479925 23.42892338978653 5.204377849033805
-4.563895961683511 26.357538813509844 5.854925080163031
-4.933323919303528 29.28615423723316 6.505472311292256
-5.2751000078902255 32.21476966095648 7.156019542421482
-5.589195749681253 35.14338508467979 7.806566773550708
-5.87558386364222 38.07200050840311 8.457114004679934
-6.134238266502182 41.00061593212642 9.107661235809159
-6.365134073748383 43.929231355849744 9.758208466938385
-6.568247600583314 46.85784677957306 10.40875569806761
-6.743556362843006 49.786462203296374 11.059302929196836
-6.891039077874648 52.71507762701969 11.709850160326061
-7.010675665377755 55.643693050743 12.360397391455287
-7.10244724820363 58.57230847446632 13.010944622584512
-7.166336153117574 61.50092389818964 13.661491853713738
-7.20232591152217 64.42953932191296 14.312039084842963
-7.210401260139238 67.35815474563627 14.962586315972189
-7.190548141656027 70.28677016935958 15.613133547101416
-7.142753705328524 73.2153855930829 16.26368077823064
-7.067006307549502 76.14400101680621 16.914228009359867
-6.963295512373591 79.07261644052953 17.56477524048909
-6.831612092005672 82.00123186425284 18.215322471618318
-6.671948027250247 84.92984728797616 18.865869702747542
-6.484296507918569 87.85846271169949 19.51641693387677
-6.2686519332010295 90.7870781354228 20.166964165005993
-6.0250099119956815 93.71569355914612 20.81751139613522
-5.75336726320056 96.64430898286943 21.468058627264448
-5.453722015966902 99.57292440659275 22.11860585839367
-5.126073409909549 102.50153983031606 22.7691530895229
-4.77042189528334 105.43015525403938 23.419700320652122
-4.386769133114408 108.35877067776269 24.07024755178135
-3.975117995298131 111.287386101486 24.720794782910573
-3.5354725646520273 114.21600152520932 25.3713420140398
-3.0678381349331594 117.14461694893264 26.021889245169024
-2.5722212108163895 120.07323237265597 26.67243647629825
-2.048629507829032 123.00184779637928 27.322983707427476
-1.4970719522526006 125.9304632201026 27.973530938556703
-0.9175586809787043 128.8590786438259 28.624078169685927
-0.310101041329972 131.7876940675492 29.274625400815154
0.3252884091581594 134.71630949127254 29.925172631944378
0.9885959029997891 137.64492491499587 30.575719863073605
1.6798064630529839 140.57354033871917 31.226267094202832
2.3989039028608388 143.5021557624425 31.876814325332056
3.1458708270269518 146.4307711861658 32.52736155646128
3.9206886316300036 149.35938660988913 33.17790878759051
4.723337504682958 152.28800203361243 33.828456018719734
5.553796426623517 155.21661745733576 34.47900324984896
6.412043170852518 158.14523288105906 35.12955048097818
7.298054304302716 161.0738483047824 35.78009771210741
8.211805188055237 164.0024637285057 36.430644943236636
9.153269977989607 166.93107915222902 37.08119217436586
10.122421625472802 169.85969457595232 37.731739405495084
11.119231878093554 172.78830999967565 38.382286636624315
12.143671280426695 175.71692542339898 39.03283386775354
13.195709174846511 178.64554084712228 39.68338109888276
14.275313702369175 181.5741562708456 40.333928330011986
15.382451803543816 184.5027716945689 40.98447556114122
16.51708921937629 187.43138711829224 41.63502279227044
17.679190492291845 190.36000254201554 42.285570023399664
18.868718967143582 193.28861796573887 42.936117254528895
20.08563679224972 196.21723338946217 43.58666448565812
21.32990492048014 199.1458488131855 44.23721171678734
22.601483110374975 202.0744642369088 44.887758947916566
23.90032992730195 205.00307966063212 45.5383061790458
25.226402744659893 207.93169508435545 46.18885341017502
26.579657745110136 210.86031050807875 46.839400641304245
27.960049921857784 213.78892593180208 47.48994787243347
29.3675330799644 216.71754135552538 48.1404951035627
30.802059837699186 219.6461567792487 48.79104233469192
32.26358162793681 222.574772202972 49.44158956582115
33.75204869958202 225.50338762669534 50.09213679695037
35.267410119045664 228.43200305041864 50.7426840280796
36.809613771746385 231.36061847414197 51.393231259208825
38.378606363663046 234.28923389786527 52.04377849033805
39.97433342291756 237.2178493215886 52.69432572146728
41.596739301396006 240.14646474531193 53.3448729525965
43.245767176416656 243.07508016903523 53.99542018372573
44.921359052423604 246.00369559275856 54.64596741485495
46.623455762731574 248.93231101648186 55.29651464598418
48.35199697130049 251.8609264402052 55.947061877113406
50.106921174547956 254.7895418639285 56.59760910824263
51.88816570320906 257.7181572876518 57.24815633937185
53.695666724220686 260.64677271137515 57.898703570501084
55.5293592426585 263.5753881350984 58.54925080163031
57.3891771036972 266.50400355882175 59.19979803275953
59.2750529946227 269.4326189825451 59.850345263888755
61.18691844687282 272.3612344062684 60.500892495017986
63.124703838115856 275.28984982999174 61.15143972614721
65.0883383943764 278.218465253715 61.80198695727643
67.07775019218451 281.14708067743834 62.452534188405664
69.09286616077713 284.07569610116167 63.10308141953489
71.13361208432737 287.004311524885 63.75362865066411
73.19991260421116 289.93292694860827 64.40417588179334
75.29169122132154 292.8615423723316 65.05472311292256
77.40887029840513 295.7901577960549 65.70527034405178
79.55137106245239 298.71877321977826 66.35581757518102
81.7191136071085 301.64738864350153 67.00636480631024
83.91201689513727 304.57600406722486 67.65691203743947
86.12999876091155 307.5046194909482 68.30745926856869
88.37297591294077 310.4332349146715 68.95800649969792
90.64086393644618 313.36185033839485 69.60855373082714
92.93357729595685 316.2904657621181 70.25910096195636
95.2510293379588 319.21908118584145 70.90964819308559
97.5931322935701 322.1476966095648 71.56019542421483
99.95979728125243 325.0763120332881 72.21074265534405
102.35093430957077 328.0049274570114 72.86128988647327
104.7664522799724 330.9335428807347 73.5118371176025
107.20625898961963 333.86215830445803 74.16238434873172
109.67026113424753 336.79077372818136 74.81293157986094
112.15836431105784 339.71938915190464 75.46347881099017
114.67047302166074 342.64800457562797 76.1140260421194
117.20649067503541 345.5766199993513 76.76457327324863
119.76631959054522 348.5052354230746 77.41512050437785
122.34986100097018 351.43385084679795 78.06566773550708
124.95701505559306 354.3624662705212 78.7162149666363
127.58768082330948 357.29108169424455 79.36676219776552
130.24175629577346 360.2196971179679 80.01730942889475
132.91913839059094 363.1483125416912 80.66785666002397
135.61972295453057 366.0769279654145 81.31840389115321
138.34340476678815 369.0055433891378 81.96895112228243
141.09007754227437 371.93415881286114 82.61949835341166
143.85963393493756 374.86277423658447 83.27004558454088
146.65196554113442 377.7913896603078 83.9205928156701
149.46696290301645 380.7200050840311 84.57114004679933
152.30451551197234 383.6486205077544 85.22168727792855
