# .PCD v.7 - Point Cloud Data file format
VERSION .7
FIELDS x y z
SIZE 4 4 4
TYPE F F F
WIDTH 858
HEIGHT 1
VIEWPOINT 0 0 0 1 0 0 0
POINTS 858
DATA ascii
14.374294590926286 103.6422576222247 16.83099625596792
15.282749192180592 106.60346498285969 17.31188186328129
16.21851690759136 109.56467234349468 17.792767470594658
17.181558775945323 112.52587970412968 18.27365307790803
18.171834646811504 115.48708706476467 18.754538685221398
0.4935102891718217 2.9612073606349916 0.48088560731336916
1.0145546171072197 5.922414721269983 0.9617712146267383
1.5631000184246984 8.883622081904974 1.4426568219401075
2.1391123358296955 11.844829442539966 1.9235424292534766
2.7425562213371513 14.806036803174957 2.404428036566846
3.3733951375325923 17.76724416380995 2.885313643880215
4.031591358871675 20.72845152444494 3.366199251193584
4.717105973019006 23.689658885079933 3.8470848585069533
5.429898882224564 26.650866245714923 4.327970465820322
6.1699288047398335 29.612073606349913 4.808856073133692
6.93715327627109 32.5732809669849 5.289741680447061
7.731528651472526 35.5344883276199 5.77062728776043
8.553010105476847 38.49569568825489 6.251512895073799
9.401551635464063 41.45690304888988 6.732398502387168
10.277106062269958 44.41811040952487 7.213284109700537
11.179625032030751 47.379317770159865 7.6941697170139065
12.109059017868157 50.34052513079485 8.175055324327275
13.06535732161115 53.301732491429846 8.655940931640645
14.048468075555677 56.26293985206484 9.136826538954015
15.058338244264307 59.224147212699826 9.617712146267383
16.094913626401066 62.18535457333482 10.098597753580751
17.15813885660738 65.1465619339698 10.579483360894121
18.247957407412578 68.10776929460481 11.060368968207491
19.364311591185526 71.0689766552398 11.54125457552086
20.5071425621218 74.03018401587478 12.022140182834228
21.676390318268492 76.99139137650978 12.503025790147598
22.871993703589222 79.95259873714477 12.983911397460968
24.09389041006289 82.91380609777976 13.464797004774336
25.3420169798239 85.87501345841476 13.945682612087705
26.616308807337298 88.83622081904974 14.426568219401075
27.91670014161104 91.79742817968473 14.907453826714445
29.243124088448795 94.75863554031973 15.388339434027813
30.595512612735302 97.71984290095472 15.869225041341181
31.973796540763747 100.6810502615897 16.35011064865455
33.37790556259707 103.6422576222247 16.83099625596792
34.807768234466224 106.60346498285969 17.31188186328129
36.26331198120895 109.56467234349468 17.792767470594658
37.74446309874022 112.52587970412968 18.27365307790803
39.25114675656524 115.48708706476467 18.754538685221398
1.032702603765232 2.9612073606349916 0.48088560731336916
2.0916013249722867 5.922414721269983 0.9617712146267383
3.176628202335938 8.883622081904974 1.4426568219401075
4.287714141631966 11.844829442539966 1.9235424292534766
5.424788918181223 14.806036803174957 2.404428036566846
6.5877811793708645 17.76724416380995 2.885313643880215
7.776618447211972 20.72845152444494 3.366199251193584
8.991227120933598 23.689658885079933 3.8470848585069533
10.23153247961403 26.650866245714923 4.327970465820322
11.49745868484742 29.612073606349913 4.808856073133692
12.78892878344806 32.5732809669849 5.289741680447061
14.105864710189467 35.5344883276199 5.77062728776043
15.448187290581151 38.49569568825489 6.251512895073799
16.815816243680494 41.45690304888988 6.732398502387168
18.2086701849405 44.41811040952487 7.213284109700537
19.626666629094856 47.379317770159865 7.6941697170139065
21.069721993076772 50.34052513079485 8.175055324327275
22.537751598975735 53.301732491429846 8.655940931640645
24.030669677028513 56.26293985206484 9.136826538954015
25.548389368645573 59.224147212699826 9.617712146267383
27.090822729474823 62.18535457333482 10.098597753580751
28.657880732497997 65.1465619339698 10.579483360894121
30.24947327116543 68.10776929460481 11.060368968207491
31.8655091625628 71.0689766552398 11.54125457552086
33.50589615061616 74.03018401587478 12.022140182834228
35.170540909329866 76.99139137650978 12.503025790147598
36.85934904605929 79.95259873714477 12.983911397460968
38.57222510482083 82.91380609777976 13.464797004774336
40.30907256963296 85.87501345841476 13.945682612087705
42.06979386789566 88.83622081904974 14.426568219401075
43.8542903738019 91.79742817968473 14.907453826714445
45.66246241178332 94.75863554031973 15.388339434027813
47.49420925999323 97.71984290095472 15.869225041341181
49.34942915381937 100.6810502615897 16.35011064865455
51.22801928943534 103.6422576222247 16.83099625596792
53.12987582738297 106.60346498285969 17.31188186328129
55.05489389618846 109.56467234349468 17.792767470594658
57.002967596015736 112.52587970412968 18.27365307790803
58.973990002348366 115.48708706476467 18.754538685221398
-1.6426142130943444 2.962042153750605 0.47571659567906244
-3.261825601478319 5.92408430750121 0.9514331913581249
-4.857528180394093 8.886126461251814 1.4271497870371874
-6.4296169820321545 11.84816861500242 1.9028663827162497
-7.977988059330296 14.810210768753025 2.3785829783953125
-9.502538489739077 17.77225292250363 2.854299574074375
-11.003166378954282 20.734295076254234 3.330016169753437
-12.479770864616176 23.69633723000484 3.8057327654324995
-13.932252119974631 26.658379383755445 4.281449361111562
-15.360511357521617 29.62042153750605 4.757165956790625
-16.76445083258885 32.582463691256656 5.232882552469687
-18.143973846912925 35.54450584500726 5.70859914814875
-19.49898475216519 38.50654799875787 6.1843157438278125
-20.829388953448476 41.46859015250847 6.660032339506874
-22.13509291275988 44.43063230625908 7.135748935185937
-23.416004152417965 47.39267446000968 7.611465530864999
-24.67203125845762 50.35471661376028 8.087182126544063
-25.90308388398837 53.31675876751089 8.562898722223125
-27.10907275251954 56.27880092126149 9.038615317902186
-28.289909661250938 59.2408430750121 9.51433191358125
-29.44550748432694 62.2028852287627 9.990048509260312
-30.575780176058476 65.16492738251331 10.465765104939374
-31.680642774107035 68.12696953626391 10.941481700618438
-32.760011402636756 71.08901169001452 11.4171982962975
-33.813803275428334 74.05105384376512 11.892914891976561
-34.841936698959714 77.01309599751573 12.368631487655625
-35.84433107545161 79.97513815126634 12.844348083334687
-36.820906905875134 82.93718030501694 13.320064679013749
-37.7715857929276 85.89922245876754 13.795781274692812
-38.696290443968955 88.86126461251816 14.271497870371874
-39.59494467392495 91.82330676626876 14.747214466050936
-40.46747340815479 94.78534892001936 15.222931061729998
-41.31380268527985 97.74739107376996 15.698647657409062
-42.13385965998096 100.70943322752056 16.174364253088125
-42.92757260575465 103.67147538127118 16.650080848767185
-43.69487091763838 106.63351753502178 17.12579744444625
-44.43568511489465 109.59555968877238 17.601514040125313
-45.14994684366204 112.55760184252298 18.077230635804373
-45.83758887957006 115.5196439962736 18.552947231483436
-1.1495792838584775 2.962042153750605 0.47571659567906244
-2.2733400753636377 5.92408430750121 0.9514331913581249
-3.371208508090064 8.886126461251814 1.4271497870371874
-4.443111836287828 11.84816861500242 1.9028663827162497
-5.488978437518727 14.810210768753025 2.3785829783953125
-6.508737815256514 17.77225292250363 2.854299574074375
-7.502320601450005 20.734295076254234 3.330016169753437
-8.469658559049918 23.69633723000484 3.8057327654324995
-9.410684584499187 26.658379383755445 4.281449361111562
-10.325332710185647 29.62042153750605 4.757165956790625
-11.213538106859108 32.582463691256656 5.232882552469687
-12.075237086010016 35.54450584500726 5.70859914814875
-12.91036710221274 38.50654799875787 6.1843157438278125
-13.718866755430117 41.46859015250847 6.660032339506874
-14.500675793281935 44.43063230625908 7.135748935185937
-15.255735113276398 47.39267446000968 7.611465530864999
-15.983986765002722 50.35471661376028 8.087182126544063
-16.685373952288717 53.31675876751089 8.562898722223125
-17.359841035318514 56.27880092126149 9.038615317902186
-18.007333532714405 59.2408430750121 9.51433191358125
-18.627798123581332 62.2028852287627 9.990048509260312
-19.221182649511682 65.16492738251331 10.465765104939374
-19.787436116555487 68.12696953626391 10.941481700618438
-20.326508697149478 71.08901169001452 11.4171982962975
-20.838351732011894 74.05105384376512 11.892914891976561
-21.322917731995982 77.01309599751573 12.368631487655625
-21.78016037990787 79.97513815126634 12.844348083334687
-22.210034532286684 82.93718030501694 13.320064679013749
-22.612496221143815 85.89922245876754 13.795781274692812
-22.987502655668326 88.86126461251816 14.271497870371874
-23.3350122238899 91.82330676626876 14.747214466050936
-23.65498449430651 94.78534892001936 15.222931061729998
-23.947380217473953 97.74739107376996 15.698647657409062
-24.21216132755388 100.70943322752056 16.174364253088125
-24.449290943828377 103.67147538127118 16.650080848767185
-24.658733372170772 106.63351753502178 17.12579744444625
-24.840454106483595 109.59555968877238 17.601514040125313
-24.99441983009268 112.55760184252298 18.077230635804373
-25.120598417106343 115.5196439962736 18.552947231483436
-0.6168163814530521 2.962042153750605 0.47571659567906244
-1.2062908566115824 5.92408430750121 0.9514331913581249
-1.7683842301107973 8.886126461251814 1.4271497870371874
-2.3030584922591943 11.84816861500242 1.9028663827162497
-2.8102768204216755 14.810210768753025 2.3785829783953125
-3.290003580363658 17.77225292250363 2.854299574074375
-3.742204327557244 20.734295076254234 3.330016169753437
-4.1668458084479925 23.69633723000484 3.8057327654324995
-4.563895961683511 26.658379383755445 4.281449361111562
-4.933323919303528 29.62042153750605 4.757165956790625
-5.2751000078902255 32.582463691256656 5.232882552469687
-5.589195749681253 35.54450584500726 5.70859914814875
-5.87558386364222 38.50654799875787 6.1843157438278125
-6.134238266502182 41.46859015250847 6.660032339506874
-6.365134073748383 44.43063230625908 7.135748935185937
-6.568247600583314 47.39267446000968 7.611465530864999
-6.743556362843006 50.35471661376028 8.087182126544063
-6.891039077874648 53.31675876751089 8.562898722223125
-7.010675665377755 56.27880092126149 9.038615317902186
-7.10244724820363 59.2408430750121 9.51433191358125
-7.166336153117574 62.2028852287627 9.990048509260312
-7.20232591152217 65.16492738251331 10.465765104939374
-7.210401260139238 68.12696953626391 10.941481700618438
-7.190548141656027 71.08901169001452 11.4171982962975
-7.142753705328524 74.05105384376512 11.892914891976561
-7.067006307549502 77.01309599751573 12.368631487655625
-6.963295512373591 79.97513815126634 12.844348083334687
-6.831612092005672 82.93718030501694 13.320064679013749
-6.671948027250247 85.89922245876754 13.795781274692812
-6.484296507918569 88.86126461251816 14.271497870371874
-6.2686519332010295 91.82330676626876 14.747214466050936
-6.0250099119956815 94.78534892001936 15.222931061729998
-5.75336726320056 97.74739107376996 15.698647657409062
-5.453722015966902 100.70943322752056 16.174364253088125
-5.126073409909549 103.67147538127118 16.650080848767185
-4.77042189528334 106.63351753502178 17.12579744444625
-4.386769133114408 109.59555968877238 17.601514040125313
-3.975117995298131 112.55760184252298 18.077230635804373
-3.5354725646520273 115.5196439962736 18.552947231483436
-0.06273710270283878 2.962042153750605 0.47571659567906244
-0.09755378608709678 5.92408430750121 0.9514331913581249
-0.10444688038971632 8.886126461251814 1.4271497870371874
-0.08341442554351858 11.84816861500242 1.9028663827162497
-0.03445567125888578 14.810210768753025 2.3785829783953125
0.04242892293367296 17.77225292250363 2.854299574074375
0.14723768768081966 20.734295076254234 3.330016169753437
0.27996774384216394 23.69633723000484 3.8057327654324995
0.4406150025662765 26.658379383755445 4.281449361111562
0.6291741654053904 29.62042153750605 4.757165956790625
0.8456387244692165 32.582463691256656 5.232882552469687
1.0900009626191443 35.54450584500726 5.70859914814875
1.362251953700108 38.50654799875787 6.1843157438278125
1.6623815628136156 41.46859015250847 6.660032339506874
1.9903784466280134 44.43063230625908 7.135748935185937
2.3462300537300678 47.39267446000968 7.611465530864999
2.7299226250144444 50.35471661376028 8.087182126544063
3.141441194112249 53.31675876751089 8.562898722223125
3.5807695878606363 56.27880092126149 9.038615317902186
4.047890426808898 59.2408430750121 9.51433191358125
4.542785125766832 62.2028852287627 9.990048509260312
5.065433894389062 65.16492738251331 10.465765104939374
5.615815737801711 68.12696953626391 10.941481700618438
6.19390845726611 71.08901169001452 11.4171982962975
6.799688650881479 74.05105384376512 11.892914891976561
7.433131714329289 77.01309599751573 12.368631487655625
8.094211841652871 79.97513815126634 12.844348083334687
8.782902026080057 82.93718030501694 13.320064679013749
9.499174060882236 85.89922245876754 13.795781274692812
10.242998540272264 88.86126461251816 14.271497870371874
11.01434486034446 91.82330676626876 14.747214466050936
11.81318122004895 94.78534892001936 15.222931061729998
12.639474622209685 97.74739107376996 15.698647657409062
13.493190874578238 100.70943322752056 16.174364253088125
14.374294590926286 103.67147538127118 16.650080848767185
15.282749192180592 106.63351753502178 17.12579744444625
16.21851690759136 109.59555968877238 17.601514040125313
17.181558775945323 112.55760184252298 18.077230635804373
18.171834646811504 115.5196439962736 18.552947231483436
0.4935102891718217 2.962042153750605 0.47571659567906244
1.0145546171072197 5.92408430750121 0.9514331913581249
1.5631000184246984 8.886126461251814 1.4271497870371874
2.1391123358296955 11.84816861500242 1.9028663827162497
2.7425562213371513 14.810210768753025 2.3785829783953125
3.3733951375325923 17.77225292250363 2.854299574074375
4.031591358871675 20.734295076254234 3.330016169753437
4.717105973019006 23.69633723000484 3.8057327654324995
5.429898882224564 26.658379383755445 4.281449361111562
6.1699288047398335 29.62042153750605 4.757165956790625
6.93715327627109 32.582463691256656 5.232882552469687
7.731528651472526 35.54450584500726 5.70859914814875
8.553010105476847 38.50654799875787 6.1843157438278125
9.401551635464063 41.46859015250847 6.660032339506874
10.277106062269958 44.43063230625908 7.135748935185937
11.179625032030751 47.39267446000968 7.611465530864999
12.109059017868157 50.35471661376028 8.087182126544063
13.06535732161115 53.31675876751089 8.562898722223125
14.048468075555677 56.27880092126149 9.038615317902186
15.058338244264307 59.2408430750121 9.51433191358125
16.094913626401066 62.2028852287627 9.990048509260312
17.15813885660738 65.16492738251331 10.465765104939374
18.247957407412578 68.12696953626391 10.941481700618438
19.364311591185526 71.08901169001452 11.4171982962975
20.5071425621218 74.05105384376512 11.892914891976561
21.676390318268492 77.01309599751573 12.368631487655625
22.871993703589222 79.97513815126634 12.844348083334687
24.09389041006289 82.93718030501694 13.320064679013749
25.3420169798239 85.89922245876754 13.795781274692812
26.616308807337298 88.86126461251816 14.271497870371874
27.91670014161104 91.82330676626876 14.747214466050936
29.243124088448795 94.78534892001936 15.222931061729998
30.595512612735302 97.74739107376996 15.698647657409062
31.973796540763747 100.70943322752056 16.174364253088125
33.37790556259707 103.67147538127118 16.650080848767185
34.807768234466224 106.63351753502178 17.12579744444625
36.26331198120895 109.59555968877238 17.601514040125313
37.74446309874022 112.55760184252298 18.077230635804373
39.25114675656524 115.5196439962736 18.552947231483436
1.032702603765232 2.962042153750605 0.47571659567906244
2.0916013249722867 5.92408430750121 0.9514331913581249
3.176628202335938 8.886126461251814 1.4271497870371874
4.287714141631966 11.84816861500242 1.9028663827162497
5.424788918181223 14.810210768753025 2.3785829783953125
6.5877811793708645 17.77225292250363 2.854299574074375
7.776618447211972 20.734295076254234 3.330016169753437
8.991227120933598 23.69633723000484 3.8057327654324995
10.23153247961403 26.658379383755445 4.281449361111562
11.49745868484742 29.62042153750605 4.757165956790625
12.78892878344806 32.582463691256656 5.232882552469687
14.105864710189467 35.54450584500726 5.70859914814875
15.448187290581151 38.50654799875787 6.1843157438278125
16.815816243680494 41.46859015250847 6.660032339506874
18.2086701849405 44.43063230625908 7.135748935185937
19.626666629094856 47.39267446000968 7.611465530864999
21.069721993076772 50.35471661376028 8.087182126544063
22.537751598975735 53.31675876751089 8.562898722223125
24.030669677028513 56.27880092126149 9.038615317902186
25.548389368645573 59.2408430750121 9.51433191358125
27.090822729474823 62.2028852287627 9.990048509260312
28.657880732497997 65.16492738251331 10.465765104939374
30.24947327116543 68.12696953626391 10.941481700618438
31.8655091625628 71.08901169001452 11.4171982962975
33.50589615061616 74.05105384376512 11.892914891976561
35.170540909329866 77.01309599751573 12.368631487655625
36.85934904605929 79.97513815126634 12.844348083334687
38.57222510482083 82.93718030501694 13.320064679013749
40.30907256963296 85.89922245876754 13.795781274692812
42.06979386789566 88.86126461251816 14.271497870371874
43.8542903738019 91.82330676626876 14.747214466050936
45.66246241178332 94.78534892001936 15.222931061729998
47.49420925999323 97.74739107376996 15.698647657409062
49.34942915381937 100.70943322752056 16.174364253088125
51.22801928943534 103.67147538127118 16.650080848767185
53.12987582738297 106.63351753502178 17.12579744444625
55.05489389618846 109.59555968877238 17.601514040125313
57.002967596015736 112.55760184252298 18.077230635804373
58.973990002348366 115.5196439962736 18.552947231483436
-1.6426142130943444 2.962867923972126 0.4705461349295149
-3.261825601478319 5.925735847944252 0.9410922698590298
-4.857528180394093 8.888603771916378 1.4116384047885446
-6.4296169820321545 11.851471695888504 1.8821845397180597
-7.977988059330296 14.814339619860629 2.3527306746475745
-9.502538489739077 17.777207543832755 2.8232768095770893
-11.003166378954282 20.740075467804882 3.293822944506604
-12.479770864616176 23.70294339177701 3.7643690794361193
-13.932252119974631 26.665811315749135 4.234915214365634
-15.360511357521617 29.628679239721258 4.705461349295149
-16.76445083258885 32.591547163693384 5.176007484224664
-18.143973846912925 35.55441508766551 5.6465536191541785
-19.49898475216519 38.51728301163764 6.117099754083694
-20.829388953448476 41.480150935609764 6.587645889013208
-22.13509291275988 44.44301885958189 7.058192023942723
-23.416004152417965 47.40588678355402 7.528738158872239
-24.67203125845762 50.36875470752614 7.999284293801753
-25.90308388398837 53.33162263149827 8.469830428731267
-27.10907275251954 56.2944905554704 8.940376563660783
-28.289909661250938 59.257358479442516 9.410922698590298
-29.44550748432694 62.22022640341464 9.881468833519813
-30.575780176058476 65.18309432738677 10.352014968449328
-31.680642774107035 68.1459622513589 10.822561103378842
-32.760011402636756 71.10883017533102 11.293107238308357
-33.813803275428334 74.07169809930315 11.763653373237872
-34.841936698959714 77.03456602327527 12.234199508167388
-35.84433107545161 79.9974339472474 12.704745643096903
-36.820906905875134 82.96030187121953 13.175291778026416
-37.7715857929276 85.92316979519165 13.645837912955932
-38.696290443968955 88.88603771916378 14.116384047885447
-39.59494467392495 91.84890564313591 14.586930182814962
-40.46747340815479 94.81177356710803 15.057476317744477
-41.31380268527985 97.77464149108016 15.52802245267399
-42.13385965998096 100.73750941505229 15.998568587603506
-42.92757260575465 103.70037733902441 16.46911472253302
-43.69487091763838 106.66324526299654 16.939660857462535
-44.43568511489465 109.62611318696867 17.41020699239205
-45.14994684366204 112.5889811109408 17.880753127321565
-45.83758887957006 115.5518490349129 18.351299262251082
-1.1495792838584775 2.962867923972126 0.4705461349295149
-2.2733400753636377 5.925735847944252 0.9410922698590298
-3.371208508090064 8.888603771916378 1.4116384047885446
-4.443111836287828 11.851471695888504 1.8821845397180597
-5.488978437518727 14.814339619860629 2.3527306746475745
-6.508737815256514 17.777207543832755 2.8232768095770893
-7.502320601450005 20.740075467804882 3.293822944506604
-8.469658559049918 23.70294339177701 3.7643690794361193
-9.410684584499187 26.665811315749135 4.234915214365634
-10.325332710185647 29.628679239721258 4.705461349295149
-11.213538106859108 32.591547163693384 5.176007484224664
-12.075237086010016 35.55441508766551 5.6465536191541785
-12.91036710221274 38.51728301163764 6.117099754083694
-13.718866755430117 41.480150935609764 6.587645889013208
-14.500675793281935 44.44301885958189 7.058192023942723
-15.255735113276398 47.40588678355402 7.528738158872239
-15.983986765002722 50.36875470752614 7.999284293801753
-16.685373952288717 53.33162263149827 8.469830428731267
-17.359841035318514 56.2944905554704 8.940376563660783
-18.007333532714405 59.257358479442516 9.410922698590298
-18.627798123581332 62.22022640341464 9.881468833519813
-19.221182649511682 65.18309432738677 10.352014968449328
-19.787436116555487 68.1459622513589 10.822561103378842
-20.326508697149478 71.10883017533102 11.293107238308357
-20.838351732011894 74.07169809930315 11.763653373237872
-21.322917731995982 77.03456602327527 12.234199508167388
-21.78016037990787 79.9974339472474 12.704745643096903
-22.210034532286684 82.96030187121953 13.175291778026416
-22.612496221143815 85.92316979519165 13.645837912955932
-22.987502655668326 88.88603771916378 14.116384047885447
-23.3350122238899 91.84890564313591 14.586930182814962
-23.65498449430651 94.81177356710803 15.057476317744477
-23.947380217473953 97.77464149108016 15.52802245267399
-24.21216132755388 100.73750941505229 15.998568587603506
-24.449290943828377 103.70037733902441 16.46911472253302
-24.658733372170772 106.66324526299654 16.939660857462535
-24.840454106483595 109.62611318696867 17.41020699239205
-24.99441983009268 112.5889811109408 17.880753127321565
-25.120598417106343 115.5518490349129 18.351299262251082
-0.6168163814530521 2.962867923972126 0.4705461349295149
-1.2062908566115824 5.925735847944252 0.9410922698590298
-1.7683842301107973 8.888603771916378 1.4116384047885446
-2.3030584922591943 11.851471695888504 1.8821845397180597
-2.8102768204216755 14.814339619860629 2.3527306746475745
-3.290003580363658 17.777207543832755 2.8232768095770893
-3.742204327557244 20.740075467804882 3.293822944506604
-4.1668458084479925 23.70294339177701 3.7643690794361193
-4.563895961683511 26.665811315749135 4.234915214365634
-4.933323919303528 29.628679239721258 4.705461349295149
-5.2751000078902255 32.591547163693384 5.176007484224664
-5.589195749681253 35.55441508766551 5.6465536191541785
-5.87558386364222 38.51728301163764 6.117099754083694
-6.134238266502182 41.480150935609764 6.587645889013208
-6.365134073748383 44.44301885958189 7.058192023942723
-6.568247600583314 47.40588678355402 7.528738158872239
-6.743556362843006 50.36875470752614 7.999284293801753
-6.891039077874648 53.33162263149827 8.469830428731267
-7.010675665377755 56.2944905554704 8.940376563660783
-7.10244724820363 59.257358479442516 9.410922698590298
-7.166336153117574 62.22022640341464 9.881468833519813
-7.20232591152217 65.18309432738677 10.352014968449328
-7.210401260139238 68.1459622513589 10.822561103378842
-7.190548141656027 71.10883017533102 11.293107238308357
-7.142753705328524 74.07169809930315 11.763653373237872
-7.067006307549502 77.03456602327527 12.234199508167388
-6.963295512373591 79.9974339472474 12.704745643096903
-6.831612092005672 82.96030187121953 13.175291778026416
-6.671948027250247 85.92316979519165 13.645837912955932
-6.484296507918569 88.88603771916378 14.116384047885447
-6.2686519332010295 91.84890564313591 14.586930182814962
-6.0250099119956815 94.81177356710803 15.057476317744477
-5.75336726320056 97.77464149108016 15.52802245267399
-5.453722015966902 100.73750941505229 15.998568587603506
-5.126073409909549 103.70037733902441 16.46911472253302
-4.77042189528334 106.66324526299654 16.939660857462535
-4.386769133114408 109.62611318696867 17.41020699239205
-3.975117995298131 112.5889811109408 17.880753127321565
-3.5354725646520273 115.5518490349129 18.351299262251082
-0.06273710270283878 2.962867923972126 0.4705461349295149
-0.09755378608709678 5.925735847944252 0.9410922698590298
-0.10444688038971632 8.888603771916378 1.4116384047885446
-0.08341442554351858 11.851471695888504 1.8821845397180597
-0.03445567125888578 14.814339619860629 2.3527306746475745
0.04242892293367296 17.777207543832755 2.8232768095770893
0.14723768768081966 20.740075467804882 3.293822944506604
0.27996774384216394 23.70294339177701 3.7643690794361193
0.4406150025662765 26.665811315749135 4.234915214365634
0.6291741654053904 29.628679239721258 4.705461349295149
0.8456387244692165 32.591547163693384 5.176007484224664
1.0900009626191443 35.55441508766551 5.6465536191541785
1.362251953700108 38.51728301163764 6.117099754083694
1.6623815628136156 41.480150935609764 6.587645889013208
1.9903784466280134 44.44301885958189 7.058192023942723
2.3462300537300678 47.40588678355402 7.528738158872239
2.7299226250144444 50.36875470752614 7.999284293801753
3.141441194112249 53.33162263149827 8.469830428731267
3.5807695878606363 56.2944905554704 8.940376563660783
4.047890426808898 59.257358479442516 9.410922698590298
4.542785125766832 62.22022640341464 9.881468833519813
5.065433894389062 65.18309432738677 10.352014968449328
5.615815737801711 68.1459622513589 10.822561103378842
6.19390845726611 71.10883017533102 11.293107238308357
6.799688650881479 74.07169809930315 11.763653373237872
7.433131714329289 77.03456602327527 12.234199508167388
8.094211841652871 79.9974339472474 12.704745643096903
8.782902026080057 82.96030187121953 13.175291778026416
9.499174060882236 85.92316979519165 13.645837912955932
10.242998540272264 88.88603771916378 14.116384047885447
11.01434486034446 91.84890564313591 14.586930182814962
11.81318122004895 94.81177356710803 15.057476317744477
12.639474622209685 97.77464149108016 15.52802245267399
13.493190874578238 100.73750941505229 15.998568587603506
14.374294590926286 103.70037733902441 16.46911472253302
15.282749192180592 106.66324526299654 16.939660857462535
16.21851690759136 109.62611318696867 17.41020699239205
17.181558775945323 112.5889811109408 17.880753127321565
18.171834646811504 115.5518490349129 18.351299262251082
0.4935102891718217 2.962867923972126 0.4705461349295149
1.0145546171072197 5.925735847944252 0.9410922698590298
1.5631000184246984 8.888603771916378 1.4116384047885446
2.1391123358296955 11.851471695888504 1.8821845397180597
2.7425562213371513 14.814339619860629 2.3527306746475745
3.3733951375325923 17.777207543832755 2.8232768095770893
4.031591358871675 20.740075467804882 3.293822944506604
4.717105973019006 23.70294339177701 3.7643690794361193
5.429898882224564 26.665811315749135 4.234915214365634
6.1699288047398335 29.628679239721258 4.705461349295149
6.93715327627109 32.591547163693384 5.176007484224664
7.731528651472526 35.55441508766551 5.6465536191541785
8.553010105476847 38.51728301163764 6.117099754083694
9.401551635464063 41.480150935609764 6.587645889013208
10.277106062269958 44.44301885958189 7.058192023942723
11.179625032030751 47.40588678355402 7.528738158872239
12.109059017868157 50.36875470752614 7.999284293801753
13.06535732161115 53.33162263149827 8.469830428731267
14.048468075555677 56.2944905554704 8.940376563660783
15.058338244264307 59.257358479442516 9.410922698590298
16.094913626401066 62.22022640341464 9.881468833519813
17.15813885660738 65.18309432738677 10.352014968449328
18.247957407412578 68.1459622513589 10.822561103378842
19.364311591185526 71.10883017533102 11.293107238308357
20.5071425621218 74.07169809930315 11.763653373237872
21.676390318268492 77.03456602327527 12.234199508167388
22.871993703589222 79.9974339472474 12.704745643096903
24.09389041006289 82.96030187121953 13.175291778026416
25.3420169798239 85.92316979519165 13.645837912955932
26.616308807337298 88.88603771916378 14.116384047885447
27.91670014161104 91.84890564313591 14.586930182814962
29.243124088448795 94.81177356710803 15.057476317744477
30.595512612735302 97.77464149108016 15.52802245267399
31.973796540763747 100.73750941505229 15.998568587603506
33.37790556259707 103.70037733902441 16.46911472253302
34.807768234466224 106.66324526299654 16.939660857462535
36.26331198120895 109.62611318696867 17.41020699239205
37.74446309874022 112.5889811109408 17.880753127321565
39.25114675656524 115.5518490349129 18.351299262251082
1.032702603765232 2.962867923972126 0.4705461349295149
2.0916013249722867 5.925735847944252 0.9410922698590298
3.176628202335938 8.888603771916378 1.4116384047885446
4.287714141631966 11.851471695888504 1.8821845397180597
5.424788918181223 14.814339619860629 2.3527306746475745
6.5877811793708645 17.777207543832755 2.8232768095770893
7.776618447211972 20.740075467804882 3.293822944506604
8.991227120933598 23.70294339177701 3.7643690794361193
10.23153247961403 26.665811315749135 4.234915214365634
11.49745868484742 29.628679239721258 4.705461349295149
12.78892878344806 32.591547163693384 5.176007484224664
14.105864710189467 35.55441508766551 5.6465536191541785
15.448187290581151 38.51728301163764 6.117099754083694
16.815816243680494 41.480150935609764 6.587645889013208
18.2086701849405 44.44301885958189 7.058192023942723
19.626666629094856 47.40588678355402 7.528738158872239
21.069721993076772 50.36875470752614 7.999284293801753
22.537751598975735 53.33162263149827 8.469830428731267
24.030669677028513 56.2944905554704 8.940376563660783
25.548389368645573 59.257358479442516 9.410922698590298
27.090822729474823 62.22022640341464 9.881468833519813
28.657880732497997 65.18309432738677 10.352014968449328
30.24947327116543 68.1459622513589 10.822561103378842
31.8655091625628 71.10883017533102 11.293107238308357
33.50589615061616 74.07169809930315 11.763653373237872
35.170540909329866 77.03456602327527 12.234199508167388
36.85934904605929 79.9974339472474 12.704745643096903
38.57222510482083 82.96030187121953 13.175291778026416
40.30907256963296 85.92316979519165 13.645837912955932
42.06979386789566 88.88603771916378 14.116384047885447
43.8542903738019 91.84890564313591 14.586930182814962
45.66246241178332 94.81177356710803 15.057476317744477
47.49420925999323 97.77464149108016 15.52802245267399
49.34942915381937 100.73750941505229 15.998568587603506
51.22801928943534 103.70037733902441 16.46911472253302
53.12987582738297 106.66324526299654 16.939660857462535
55.05489389618846 109.62611318696867 17.41020699239205
57.002967596015736 112.5889811109408 17.880753127321565
58.973990002348366 115.5518490349129 18.351299262251082
-1.6426142130943444 2.9636846687841176 0.4653742408148255
-3.261825601478319 5.927369337568235 0.930748481629651
-4.857528180394093 8.891054006352352 1.3961227224444763
-6.4296169820321545 11.85473867513647 1.861496963259302
-7.977988059330296 14.818423343920587 2.3268712040741275
-9.502538489739077 17.782108012704704 2.7922454448889527
-11.003166378954282 20.745792681488822 3.2576196857037782
-12.479770864616176 23.70947735027294 3.722993926518604
-13.932252119974631 26.673162019057056 4.188368167333429
-15.360511357521617 29.636846687841174 4.653742408148255
-16.76445083258885 32.60053135662529 5.119116648963081
-18.143973846912925 35.56421602540941 5.584490889777905
-19.49898475216519 38.52790069419353 6.049865130592731
-20.829388953448476 41.491585362977645 6.5152393714075565
-22.13509291275988 44.45527003176176 6.980613612222382
-23.416004152417965 47.41895470054588 7.445987853037208
-24.67203125845762 50.38263936933 7.911362093852033
-25.90308388398837 53.34632403811411 8.376736334666859
-27.10907275251954 56.31000870689823 8.842110575481684
-28.289909661250938 59.27369337568235 9.30748481629651
-29.44550748432694 62.23737804446647 9.772859057111335
-30.575780176058476 65.20106271325058 10.238233297926161
-31.680642774107035 68.1647473820347 10.703607538740986
-32.760011402636756 71.12843205081882 11.16898177955581
-33.813803275428334 74.09211671960294 11.634356020370637
-34.841936698959714 77.05580138838705 12.099730261185462
-35.84433107545161 80.01948605717118 12.565104502000288
-36.820906905875134 82.98317072595529 13.030478742815113
-37.7715857929276 85.9468553947394 13.49585298362994
-38.696290443968955 88.91054006352353 13.961227224444764
-39.59494467392495 91.87422473230764 14.42660146525959
-40.46747340815479 94.83790940109176 14.891975706074415
-41.31380268527985 97.80159406987588 15.35734994688924
-42.13385965998096 100.76527873866 15.822724187704067
-42.92757260575465 103.72896340744411 16.288098428518893
-43.69487091763838 106.69264807622822 16.753472669333718
-44.43568511489465 109.65633274501235 17.218846910148542
-45.14994684366204 112.62001741379646 17.684221150963367
-45.83758887957006 115.58370208258059 18.149595391778195
-1.1495792838584775 2.9636846687841176 0.4653742408148255
-2.2733400753636377 5.927369337568235 0.930748481629651
-3.371208508090064 8.891054006352352 1.3961227224444763
-4.443111836287828 11.85473867513647 1.861496963259302
-5.488978437518727 14.818423343920587 2.3268712040741275
-6.508737815256514 17.782108012704704 2.7922454448889527
-7.502320601450005 20.745792681488822 3.2576196857037782
-8.469658559049918 23.70947735027294 3.722993926518604
-9.410684584499187 26.673162019057056 4.188368167333429
-10.325332710185647 29.636846687841174 4.653742408148255
-11.213538106859108 32.60053135662529 5.119116648963081
-12.075237086010016 35.56421602540941 5.584490889777905
-12.91036710221274 38.52790069419353 6.049865130592731
-13.718866755430117 41.491585362977645 6.5152393714075565
-14.500675793281935 44.45527003176176 6.980613612222382
-15.255735113276398 47.41895470054588 7.445987853037208
-15.983986765002722 50.38263936933 7.911362093852033
-16.685373952288717 53.34632403811411 8.376736334666859
-17.359841035318514 56.31000870689823 8.842110575481684
-18.007333532714405 59.27369337568235 9.30748481629651
-18.627798123581332 62.23737804446647 9.772859057111335
-19.221182649511682 65.20106271325058 10.238233297926161
-19.787436116555487 68.1647473820347 10.703607538740986
-20.326508697149478 71.12843205081882 11.16898177955581
-20.838351732011894 74.09211671960294 11.634356020370637
-21.322917731995982 77.05580138838705 12.099730261185462
-21.78016037990787 80.01948605717118 12.565104502000288
-22.210034532286684 82.98317072595529 13.030478742815113
-22.612496221143815 85.9468553947394 13.49585298362994
-22.987502655668326 88.91054006352353 13.961227224444764
-23.3350122238899 91.87422473230764 14.42660146525959
-23.65498449430651 94.83790940109176 14.891975706074415
-23.947380217473953 97.80159406987588 15.35734994688924
-24.21216132755388 100.76527873866 15.822724187704067
-24.449290943828377 103.72896340744411 16.288098428518893
-24.658733372170772 106.69264807622822 16.753472669333718
-24.840454106483595 109.65633274501235 17.218846910148542
-24.99441983009268 112.62001741379646 17.684221150963367
-25.120598417106343 115.58370208258059 18.149595391778195
-0.6168163814530521 2.9636846687841176 0.4653742408148255
-1.2062908566115824 5.927369337568235 0.930748481629651
-1.7683842301107973 8.891054006352352 1.3961227224444763
-2.3030584922591943 11.85473867513647 1.861496963259302
-2.8102768204216755 14.818423343920587 2.3268712040741275
-3.290003580363658 17.782108012704704 2.7922454448889527
-3.742204327557244 20.745792681488822 3.2576196857037782
-4.1668458084479925 23.70947735027294 3.722993926518604
-4.563895961683511 26.673162019057056 4.188368167333429
-4.933323919303528 29.636846687841174 4.653742408148255
-5.2751000078902255 32.60053135662529 5.119116648963081
-5.589195749681253 35.56421602540941 5.584490889777905
-5.87558386364222 38.52790069419353 6.049865130592731
-6.134238266502182 41.491585362977645 6.5152393714075565
-6.365134073748383 44.45527003176176 6.980613612222382
-6.568247600583314 47.41895470054588 7.445987853037208
-6.743556362843006 50.38263936933 7.911362093852033
-6.891039077874648 53.34632403811411 8.376736334666859
-7.010675665377755 56.31000870689823 8.842110575481684
-7.10244724820363 59.27369337568235 9.30748481629651
-7.166336153117574 62.23737804446647 9.772859057111335
-7.20232591152217 65.20106271325058 10.238233297926161
-7.210401260139238 68.1647473820347 10.703607538740986
-7.190548141656027 71.12843205081882 11.16898177955581
-7.142753705328524 74.09211671960294 11.634356020370637
-7.067006307549502 77.05580138838705 12.099730261185462
-6.963295512373591 80.01948605717118 12.565104502000288
-6.831612092005672 82.98317072595529 13.030478742815113
-6.671948027250247 85.9468553947394 13.49585298362994
-6.484296507918569 88.91054006352353 13.961227224444764
-6.2686519332010295 91.87422473230764 14.42660146525959
-6.0250099119956815 94.83790940109176 14.891975706074415
-5.75336726320056 97.80159406987588 15.35734994688924
-5.453722015966902 100.76527873866 15.822724187704067
-5.126073409909549 103.72896340744411 16.288098428518893
-4.77042189528334 106.69264807622822 16.753472669333718
-4.386769133114408 109.65633274501235 17.218846910148542
-3.975117995298131 112.62001741379646 17.684221150963367
-3.5354725646520273 115.58370208258059 18.149595391778195
-0.06273710270283878 2.9636846687841176 0.4653742408148255
-0.09755378608709678 5.927369337568235 0.930748481629651
-0.10444688038971632 8.891054006352352 1.3961227224444763
-0.08341442554351858 11.85473867513647 1.861496963259302
-0.03445567125888578 14.818423343920587 2.3268712040741275
0.04242892293367296 17.782108012704704 2.7922454448889527
0.14723768768081966 20.745792681488822 3.2576196857037782
0.27996774384216394 23.70947735027294 3.722993926518604
0.4406150025662765 26.673162019057056 4.188368167333429
0.6291741654053904 29.636846687841174 4.653742408148255
0.8456387244692165 32.60053135662529 5.119116648963081
1.0900009626191443 35.56421602540941 5.584490889777905
1.362251953700108 38.52790069419353 6.049865130592731
1.6623815628136156 41.491585362977645 6.5152393714075565
1.9903784466280134 44.45527003176176 6.980613612222382
2.3462300537300678 47.41895470054588 7.445987853037208
2.7299226250144444 50.38263936933 7.911362093852033
3.141441194112249 53.34632403811411 8.376736334666859
3.5807695878606363 56.31000870689823 8.842110575481684
4.047890426808898 59.27369337568235 9.30748481629651
4.542785125766832 62.23737804446647 9.772859057111335
5.065433894389062 65.20106271325058 10.238233297926161
5.615815737801711 68.1647473820347 10.703607538740986
6.19390845726611 71.12843205081882 11.16898177955581
6.799688650881479 74.09211671960294 11.634356020370637
7.433131714329289 77.05580138838705 12.099730261185462
8.094211841652871 80.01948605717118 12.565104502000288
8.782902026080057 82.98317072595529 13.030478742815113
9.499174060882236 85.9468553947394 13.49585298362994
10.242998540272264 88.91054006352353 13.961227224444764
11.01434486034446 91.87422473230764 14.42660146525959
11.81318122004895 94.83790940109176 14.891975706074415
12.639474622209685 97.80159406987588 15.35734994688924
13.493190874578238 100.76527873866 15.822724187704067
14.374294590926286 103.72896340744411 16.288098428518893
15.282749192180592 106.69264807622822 16.753472669333718
16.21851690759136 109.65633274501235 17.218846910148542
17.181558775945323 112.62001741379646 17.684221150963367
18.171834646811504 115.58370208258059 18.149595391778195
0.4935102891718217 2.9636846687841176 0.4653742408148255
1.0145546171072197 5.927369337568235 0.930748481629651
1.5631000184246984 8.891054006352352 1.3961227224444763
2.1391123358296955 11.85473867513647 1.861496963259302
2.7425562213371513 14.818423343920587 2.3268712040741275
3.3733951375325923 17.782108012704704 2.7922454448889527
4.031591358871675 20.745792681488822 3.2576196857037782
4.717105973019006 23.70947735027294 3.722993926518604
5.429898882224564 26.673162019057056 4.188368167333429
6.1699288047398335 29.636846687841174 4.653742408148255
6.93715327627109 32.60053135662529 5.119116648963081
7.731528651472526 35.56421602540941 5.584490889777905
8.553010105476847 38.52790069419353 6.049865130592731
9.401551635464063 41.491585362977645 6.5152393714075565
10.277106062269958 44.45527003176176 6.980613612222382
11.179625032030751 47.41895470054588 7.445987853037208
12.109059017868157 50.38263936933 7.911362093852033
13.06535732161115 53.34632403811411 8.376736334666859
14.048468075555677 56.31000870689823 8.842110575481684
15.058338244264307 59.27369337568235 9.30748481629651
16.094913626401066 62.23737804446647 9.772859057111335
17.15813885660738 65.20106271325058 10.238233297926161
18.247957407412578 68.1647473820347 10.703607538740986
19.364311591185526 71.12843205081882 11.16898177955581
20.5071425621218 74.09211671960294 11.634356020370637
21.676390318268492 77.05580138838705 12.099730261185462
22.871993703589222 80.01948605717118 12.565104502000288
24.09389041006289 82.98317072595529 13.030478742815113
25.3420169798239 85.9468553947394 13.49585298362994
26.616308807337298 88.91054006352353 13.961227224444764
27.91670014161104 91.87422473230764 14.42660146525959
29.243124088448795 94.83790940109176 14.891975706074415
30.595512612735302 97.80159406987588 15.35734994688924
31.973796540763747 100.76527873866 15.822724187704067
33.37790556259707 103.72896340744411 16.288098428518893
34.807768234466224 106.69264807622822 16.753472669333718
36.26331198120895 109.65633274501235 17.218846910148542
37.74446309874022 112.62001741379646 17.684221150963367
39.25114675656524 115.58370208258059 18.149595391778195
1.032702603765232 2.9636846687841176 0.4653742408148255
2.0916013249722867 5.927369337568235 0.930748481629651
3.176628202335938 8.891054006352352 1.3961227224444763
4.287714141631966 11.85473867513647 1.861496963259302
5.424788918181223 14.818423343920587 2.3268712040741275
6.5877811793708645 17.782108012704704 2.7922454448889527
7.776618447211972 20.745792681488822 3.2576196857037782
8.991227120933598 23.70947735027294 3.722993926518604
10.23153247961403 26.673162019057056 4.188368167333429
11.49745868484742 29.636846687841174 4.653742408148255
12.78892878344806 32.60053135662529 5.119116648963081
14.105864710189467 35.56421602540941 5.584490889777905
15.448187290581151 38.52790069419353 6.049865130592731
16.815816243680494 41.491585362977645 6.5152393714075565
18.2086701849405 44.45527003176176 6.980613612222382
19.626666629094856 47.41895470054588 7.445987853037208
21.069721993076772 50.38263936933 7.911362093852033
22.537751598975735 53.34632403811411 8.376736334666859
24.030669677028513 56.31000870689823 8.842110575481684
25.548389368645573 59.27369337568235 9.30748481629651
27.090822729474823 62.23737804446647 9.772859057111335
28.657880732497997 65.20106271325058 10.238233297926161
30.24947327116543 68.1647473820347 10.703607538740986
31.8655091625628 71.12843205081882 11.16898177955581
33.50589615061616 74.09211671960294 11.634356020370637
35.170540909329866 77.05580138838705 12.099730261185462
36.85934904605929 80.01948605717118 12.565104502000288
38.57222510482083 82.98317072595529 13.030478742815113
40.30907256963296 85.9468553947394 13.49585298362994
42.06979386789566 88.91054006352353 13.961227224444764
43.8542903738019 91.87422473230764 14.42660146525959
45.66246241178332 94.83790940109176 14.891975706074415
47.49420925999323 97.80159406987588 15.35734994688924
49.34942915381937 100.76527873866 15.822724187704067
51.22801928943534 103.72896340744411 16.288098428518893
53.12987582738297 106.69264807622822 16.753472669333718
55.05489389618846 109.65633274501235 17.218846910148542
57.002967596015736 112.62001741379646 17.684221150963367
58.973990002348366 115.58370208258059 18.149595391778195
-1.6426142130943444 2.9644923856986307 0.4602009290895018
-3.261825601478319 5.928984771397261 0.9204018581790036
-4.857528180394093 8.893477157095893 1.3806027872685054
-6.4296169820321545 11.857969542794523 1.840803716358007
-7.977988059330296 14.822461928493155 2.301004645447509
-9.502538489739077 17.786954314191785 2.7612055745370108
-11.003166378954282 20.751446699890415 3.2214065036265125
-12.479770864616176 23.715939085589046 3.681607432716014
-13.932252119974631 26.680431471287676 4.141808361805516
-15.360511357521617 29.64492385698631 4.602009290895018
-16.76445083258885 32.60941624268494 5.06221021998452
-18.143973846912925 35.57390862838357 5.5224111490740215
-19.49898475216519 38.538401014082204 5.982612078163523
-20.829388953448476 41.50289339978083 6.442813007253025
-22.13509291275988 44.467385785479465 6.903013936342527
-23.416004152417965 47.43187817117809 7.363214865432028
-24.67203125845762 50.396370556876725 7.82341579452153
-25.90308388398837 53.36086294257535 8.283616723611033
-27.10907275251954 56.325355328273986 8.743817652700534
-28.289909661250938 59.28984771397262 9.204018581790036
-29.44550748432694 62.254340099671246 9.664219510879537
-30.575780176058476 65.21883248536987 10.12442043996904
-31.680642774107035 68.1833248710685 10.58462136905854
-32.760011402636756 71.14781725676714 11.044822298148043
-33.813803275428334 74.11230964246577 11.505023227237544
-34.841936698959714 77.07680202816441 11.965224156327047
-35.84433107545161 80.04129441386303 12.425425085416547
-36.820906905875134 83.00578679956166 12.88562601450605
-37.7715857929276 85.9702791852603 13.34582694359555
-38.696290443968955 88.93477157095893 13.806027872685053
-39.59494467392495 91.89926395665755 14.266228801774554
-40.46747340815479 94.86375634235618 14.726429730864057
-41.31380268527985 97.82824872805482 15.18663065995356
-42.13385965998096 100.79274111375345 15.64683158904306
-42.92757260575465 103.75723349945208 16.107032518132563
-43.69487091763838 106.7217258851507 16.567233447222065
-44.43568511489465 109.68621827084934 17.027434376311565
-45.14994684366204 112.65071065654797 17.487635305401067
-45.83758887957006 115.6152030422466 17.94783623449057
-1.1495792838584775 2.9644923856986307 0.4602009290895018
-2.2733400753636377 5.928984771397261 0.9204018581790036
-3.371208508090064 8.893477157095893 1.3806027872685054
-4.443111836287828 11.857969542794523 1.840803716358007
-5.488978437518727 14.822461928493155 2.301004645447509
-6.508737815256514 17.786954314191785 2.7612055745370108
-7.502320601450005 20.751446699890415 3.2214065036265125
-8.469658559049918 23.715939085589046 3.681607432716014
-9.410684584499187 26.680431471287676 4.141808361805516
-10.325332710185647 29.64492385698631 4.602009290895018
-11.213538106859108 32.60941624268494 5.06221021998452
-12.075237086010016 35.57390862838357 5.5224111490740215
-12.91036710221274 38.538401014082204 5.982612078163523
-13.718866755430117 41.50289339978083 6.442813007253025
-14.500675793281935 44.467385785479465 6.903013936342527
-15.255735113276398 47.43187817117809 7.363214865432028
-15.983986765002722 50.396370556876725 7.82341579452153
-16.685373952288717 53.36086294257535 8.283616723611033
-17.359841035318514 56.325355328273986 8.743817652700534
-18.007333532714405 59.28984771397262 9.204018581790036
-18.627798123581332 62.254340099671246 9.664219510879537
-19.221182649511682 65.21883248536987 10.12442043996904
-19.787436116555487 68.1833248710685 10.58462136905854
-20.326508697149478 71.14781725676714 11.044822298148043
-20.838351732011894 74.11230964246577 11.505023227237544
-21.322917731995982 77.07680202816441 11.965224156327047
-21.78016037990787 80.04129441386303 12.425425085416547
-22.210034532286684 83.00578679956166 12.88562601450605
-22.612496221143815 85.9702791852603 13.34582694359555
-22.987502655668326 88.93477157095893 13.806027872685053
-23.3350122238899 91.89926395665755 14.266228801774554
-23.65498449430651 94.86375634235618 14.726429730864057
-23.947380217473953 97.82824872805482 15.18663065995356
-24.21216132755388 100.79274111375345 15.64683158904306
