# .PCD v.7 - Point Cloud Data file format
VERSION .7
FIELDS x y z
SIZE 4 4 4
TYPE F F F
WIDTH 853
HEIGHT 1
VIEWPOINT 0 0 0 1 0 0 0
POINTS 853
DATA ascii
-4.82891241131129 256.8874766280571 149.05644686382885
29.64580453684281 647.8408080620025 375.9032952895886
1180.5811639876722 3452.844467000686 2003.4792453885684
1251.1458915388694 3357.700957138443 1948.2731539575207
1685.7739500028015 3294.560264229863 1911.6363841896434
1724.3591435729381 2958.963156715768 1716.9094435055842
-1813.8547077805392 3330.7926729254723 1924.8971842636136
29.32916042964022 641.5693711041786 370.76912231331886
1012.4222746227036 3492.700193028686 2018.4651004209559
1180.5811639876722 3456.3359371766273 1997.4498465246543
1543.197406536066 3447.6777810213753 1992.4462146445826
-1208.5922022706818 3490.150944574621 2008.8741583496167
-667.4668032984864 2944.137759801338 1694.5978435345537
-21.200629308256698 526.9460576859622 303.3015863612036
13.674051861477151 565.0803118606042 325.2510432689223
35.09569122037893 622.2816931225672 358.1752286305003
1660.989665098586 3252.6785435779866 1872.188903969732
-1274.8919200855098 2792.6657710305562 1600.9306328864811
-1231.4824972911097 2885.494362984663 1654.1457859522945
29.05209683583795 636.7867896664891 365.04600327389784
-2075.7767412030025 3414.641715888634 1949.5758390257934
29.72496556364346 652.1861466511607 372.3630353785277
691.3219277760429 3127.193494128934 1785.4584426072945
1004.8931055005714 3477.1682172985984 1985.2750914189412
1089.2425270041858 3517.1157043105204 2008.0829471145632
1279.0075521967847 3354.720485370751 1915.36405548236
-1511.3350627667926 3317.2017940097935 1886.2736434086673
-3.4686498621846473 433.7745532523289 246.65894865328224
778.7367469510938 3152.037134454799 1792.3554064464956
854.0872471349511 3068.585516995433 1744.9019814550827
-665.5839042629071 3017.6770269249632 1708.990743441671
14.99531760882847 622.1565958048872 352.3438239794679
-1022.9836143502047 3369.929323636429 1900.7202197312786
17.894182469664287 514.7656320157998 290.3400490724181
878.0404022245715 3160.8874426147845 1782.8156312754743
-1905.2450186647363 3194.509464792974 1794.437315524871
-1602.2888790041811 2937.3096034081686 1649.9616037126884
-1120.0829736490111 3160.506771253966 1775.3371366751248
-1085.8422120226787 3154.4037236956824 1771.9088994456833
772.6226491640713 3427.2971359446456 1925.2000784192871
847.3837835348111 3514.48352963441 1974.174895982739
-774.6952067756984 2961.130071549094 1656.5499386881334
-672.1050556087533 2917.494202531276 1632.1386516458679
-28.36271766986544 247.85173602120327 138.65611040006775
17.863904665147086 514.9032544102462 288.0531870987323
880.1643102534453 3431.5247395611664 1919.7036130037548
-1480.313275296076 2695.8313583212157 1501.9618129273424
-896.1092862241388 2863.556446071596 1595.40856214382
-924.608440150215 3162.316758626961 1761.8605841856706
-765.3340209584854 2928.200490308722 1631.4244967376708
6.847544401472927 512.7845130701729 285.69396765662674
-1475.3766346723098 3060.457012678262 1698.1174498686619
6.7425564975321155 505.41261523658153 280.4319674354533
981.1115544283929 3545.7580532601005 1967.390359776407
-1285.573812618137 2969.7631166746496 1641.0228611566845
-1148.1537929281192 2996.0209691651417 1655.532347108556
-966.0737883561877 2995.1457074154587 1655.048697576827
-862.6019073919068 2807.839692983282 1551.547697786809
6.7425564975321155 505.90129131681334 279.5494293393939
23.74830804019451 525.1570498098408 290.1897190374331
-1824.9914240271196 2941.0829536386746 1618.48078759558
-1263.5100173683766 2736.0744903823593 1505.6644324280596
-848.6714068922107 3256.480589417621 1792.0444109302266
1.0300799623341714 382.85768565388764 210.68695388122384
6.7192258522119355 504.6362172463141 277.70179733543466
11.996254087062777 501.1317990709925 275.77331263171635
-1600.2355569871315 3084.214401616382 1690.2397832444083
-1019.1485610654113 3165.770255853039 1734.9347789344083
-952.1230279852899 3157.877753830137 1730.6094567708599
-897.9863362954542 3317.481683626606 1818.0770827448382
-3.4199914472842616 431.4567772519931 236.45094494064512
1.2162957907652916 452.50344931306597 247.98513737677413
-2115.898570381901 3518.150750053262 1920.0727329712465
-1117.1584339928306 3367.1722248513756 1837.6744021151949
-6.536103667835484 352.86841355324634 192.58214537286455
0.9475792788520295 352.86841355324634 192.58214537286455
12.52056589156727 524.0359275902688 285.9988576805973
32.30954303157448 580.2139834793429 316.65870172005833
24.947686841766274 254.55681574736676 138.92741830380774
614.481913094606 3189.8602359514857 1740.904269365646
661.3217235050985 3174.9379398559504 1732.7602482926643
783.0524831554742 2894.9254425338468 1579.9400881584756
-1624.0335883117584 2643.758262467873 1436.879692122083
-1578.3955493853737 3047.9220380528586 1656.5422572188456
-1390.6478622239858 2898.557164467103 1575.362613596129
-835.9788465778048 2875.713124977517 1562.9469033950077
-12.322483175314856 423.4933474607892 230.16816603617283
-3.5312106813422863 446.3373869503754 242.5838762372942
1.0795803724234565 402.4065417780943 218.70751046590695
12.52056589156727 524.5342913570356 285.08380731036345
-1536.172055227211 3024.4251357779826 1636.9403159780538
-1338.6304106710897 3255.7202246728966 1762.1265047254306
-964.2856659434469 3207.3505292766217 1735.9468835044963
-905.3449343459853 3354.2185134798565 1815.437733393515
-879.7231452127221 3388.517024760851 1834.001464804723
-13.345095886959243 459.0723817610081 248.46840504232165
-3.287918606840357 415.9793804079633 225.14474250003477
11.471942282558285 481.05860694113306 260.368232870019
32.60282178829074 586.5924878057326 317.4874064429666
1931.1005338229193 3396.432065825696 1838.2854028226939
-1630.9349112140826 2992.9466688346106 1613.1553668236072
-1630.4417934767623 3044.002817891201 1640.6738995517746
-1178.804737652013 2869.7076883531854 1546.7313223073409
-914.8418985918088 3045.7633747552213 1641.6228144734355
-778.1200308551665 2999.988896290692 1616.9510265102508
-41.17025443425995 677.8143926478383 365.33224483946395
-22.836186295013764 455.10394934926285 245.29450724935438
-12.629266988808173 434.85754541302873 234.3819856502535
-3.0515777344670547 386.4422316524689 208.28682530457752
1.1385094320535578 425.17448266091674 229.1629535811183
834.6860631139713 3350.3397122307438 1805.785095920779
-1595.1342884580906 3206.341733042598 1720.9572019516888
-10.916390696803825 376.2319098678729 201.93699511771672
-3.308772213226237 419.4060634592682 225.11009291811044
1.2257244403061078 458.1746911739904 245.91858890213746
4.6078024507356155 348.0365442571658 186.8035434929698
1198.0769644980298 3367.58398012883 1807.5016284307103
-1635.3409700225216 3113.2101983492466 1663.9778426692594
-1627.7438119360154 3213.750131100469 1717.715370732799
-1017.4546853406489 3178.472961714075 1698.8600977280485
-794.0801233345333 2520.5537526578323 1347.2092561894458
-997.8032015613504 3219.041706508428 1720.5436616835118
-908.261771595073 3136.140358450403 1676.2337701223473
-37.767423703354055 243.41246876611675 130.10138373278062
-33.39260195342097 269.87034580591205 144.24283848634374
-56.34133187991468 689.6686615039974 368.6205872428784
-40.90291511975177 674.6758645147801 360.6070962158593
-13.5990878786515 343.9524015173389 183.83891179632045
-10.941956014594934 377.4657124344129 201.75142115083372
1.053651586186212 394.22236789294993 210.70767582809034
6.8825403694531975 520.3382484493076 278.1152768200745
884.6412396036662 3485.3843353757006 1862.9009728693804
963.7154657794478 3269.311672884039 1747.4124257152816
1110.2202477113158 3523.307292466074 1883.1703913494875
1891.2100038393387 3362.7961717579824 1797.3788991778713
-1434.0926293940947 3267.059998267545 1738.8846907486623
-986.9649222949247 3086.0961237350275 1642.5671112827138
-947.8925452172354 3164.6609278003643 1684.383036026467
-67.61112627640459 597.6221612610451 318.08293316315707
-23.05703916053614 460.79581710231247 245.25744624987888
-13.285262773759543 336.32798144823954 179.00974525134836
-6.438549881748387 349.56924056037496 186.0573730171495
-3.447796255798768 437.8443013079444 233.04155812249027
1.0465800990305998 391.94126971920826 208.60978186771308
5.960979879306074 451.0855604200798 240.08918588829138
8.556768649513309 360.1622478500833 191.6954752297904
-882.9169180331862 3558.133535984973 1885.8458951088955
-61.24052268190799 665.3276763339173 352.6302356635208
-56.2692841409378 690.0676164897602 365.7426481450329
-23.05703916053614 461.2231700482136 244.4528326910463
-15.621516332399672 395.839042493486 209.798599704193
-10.967521332386045 379.051225959164 200.90089123459552
-6.94257777653172 377.28408737660385 199.96429034305896
-3.32267461748349 422.3461212318891 223.84761307724165
0.9735080650892741 364.9141172986824 193.40808410230292
5.995975847286345 454.1546157179728 240.7064291249
10.695960811891636 450.62033855285233 238.83322734182684
25.212787036006503 562.8336385454254 298.3073839543994
-1029.8764406555736 3226.2375144969897 1702.7317757216745
-14.924127210417543 378.5169013719056 199.7722587743631
-10.762998790057168 372.32620438685103 196.5049554766516
-6.536103667835484 355.5228839988459 187.63656081143452
-3.5242594792136597 448.38333877466386 236.6461102771077
10.44429114572948 440.4238712224509 232.44529175147858
-1832.4463552878085 3119.4398025711453 1639.4118817841036
-1479.4422352173665 2931.7777032110193 1540.7866493952756
-1338.2602665327547 2991.0860081974743 1571.9559445370278
-856.0147513877168 3075.179873476776 1616.1512137678706
-22.659504002595863 454.10687250822855 238.65445384655084
-15.168213403111288 385.0613831210125 202.3678117412273
-6.422290917400537 349.6534398455171 183.7592773282409
5.482701650242378 416.043333487071 218.65027935259042
10.674988339711456 450.566078180679 236.7936004052522
12.080844002362182 353.19423417306666 185.62013076953954
1056.3071743556222 3364.639809753951 1768.2759825940345
-560.6028213240922 2588.0328256670273 1354.3733212338254
-61.891152404956145 674.2529888163668 352.85111176273233
-21.025192797730273 421.740371454127 220.70582023529644
-15.970210893390735 405.79220614703814 212.35980182303734
-2.9751145110521624 379.21193063522344 198.44977113593882
1.23279592746172 463.38280308930337 242.49820164508412
25.410689603008123 568.8178959528351 297.6746567039082
43.80565220678747 667.1649153465496 349.14177024617277
49.721587409302636 652.9887684069151 341.72308721305353
37.069766227119956 427.9424357402171 223.95149406228612
-1208.0635242825747 3370.791746277965 1756.5204249379926
-782.4182009191645 3301.62001352088 1720.4750176385546
-656.1059616744471 3105.633437375805 1618.3463636234806
-21.025192797730273 422.1249332355463 219.96940864785174
-13.320132229858649 338.7641270923922 176.53007164596505
-10.660737518892729 369.80272512441763 192.70429287007178
-6.698693311313979 365.36863969127114 190.39368983805653
-3.044626532338428 388.4258839436329 202.40882560453585
1.0795803724234565 406.1622256762189 211.65123773259683
5.202733906400214 395.5204206366673 206.10579045576023
-1661.2055782087054 3240.7089739728535 1681.5487938242575
-1490.1628311247387 2961.1079532110216 1536.4685774302172
-1411.724671290733 2972.647042956748 1542.4560149321935
-1240.2761503516579 3044.5444482955045 1579.762356290661
-1135.2234055686806 3261.124286599908 1692.1419524816001
-1063.0329228812404 3143.9581445663785 1631.3464332307642
-1125.5896631518883 3483.917480921241 1807.7455534812957
-26.57352786211324 441.1482772020017 228.904341421708
-18.816664142506504 378.1270947445729 196.20372121860686
-14.819518842120225 377.23947245644007 195.74314910307024
-13.012746755674817 451.7997446595953 234.43120680814764
-2.877797681251391 367.47562728697926 190.67685583216723
4.4911492241347135 341.73458093112805 177.3202644816048
8.116346733729536 343.50982550739366 178.24140871267807
13.655289837256502 400.3176519478929 207.71802410702276
25.212787036006503 565.4153975405937 293.384437596837
36.30318568008747 374.5766055920417 194.36143275646032
631.8984340216133 3317.044490752274 1721.157995760408
670.9682360052477 3341.01029253186 1733.5934428798973
928.8484973670367 3285.0900883794934 1704.5773996010894
-1338.2688141257977 3288.0601321898207 1698.841242466128
-49.4478589516601 540.1622697572037 279.08551078611345
-26.57352786211324 441.5471185350827 228.13404417878024
-11.453262370417129 398.01430403162385 205.6419553160836
-6.503585739139785 355.36991431394983 183.60888867507464
-2.6970664259071007 344.70881688453136 178.1006220148224
0.9499364412372335 358.03518867130447 184.98595534013768
5.039419389158952 383.7995074590658 198.2975997690806
24.737820875202612 555.2654911155466 286.8888885548041
53.6345481552179 706.2977046989753 364.92266624171083
607.0647595782847 3811.342331017112 1969.2053310401755
978.533858428336 3344.030893694268 1727.7596424324522
-1949.2455483860815 3234.9990116388794 1664.279241802731
-1603.564508791049 2898.8721214795896 1491.3552304224581
-1419.3930594948442 2631.215523760155 1353.6564806196482
-39.39454021302278 321.01007234789324 165.14700557745624
-51.23709069004254 560.2114835988165 288.2066856337879
-26.520059999211604 441.0553902619253 226.9055810704108
-20.936851651521323 421.4924495648238 216.8412206197071
-13.912912983543459 354.8006062792504 182.530900901399
-10.941956014594934 380.5881190163388 195.7975578591448
-6.4548088460962365 353.02215712496843 181.61595904224413
-2.71792003229298 347.6868096621226 178.8711334647795
1.2092243036096795 456.17220807332194 234.6825868732273
17.01612613866553 499.7442123532299 257.0986624225219
23.66914701339386 531.7562971303051 273.5676158873098
613.9985994895518 3858.3454402147054 1984.966363436517
632.2859545989941 3154.079575119051 1622.6493872111837
896.0703673222437 3355.933554130053 1726.4952882252628
-1786.393154409626 2924.6111739871503 1498.1473495586154
-1091.038063435768 3142.6664806295275 1609.8473193218108
-750.5770011541703 2814.2484881763144 1441.6134873111205
-650.672759821632 3091.045224363169 1583.4040611737892
-30.501612679478136 432.55052664569536 221.57626655066557
-18.77249356940203 378.2592054000423 193.76525367084952
-14.714910473822906 375.5891404207478 192.39749893905528
-13.191703980212585 459.2511764386395 235.25381386860786
-7.54415945740215 412.97005013086965 211.54606518417452
-1124.8773042775078 2586.0389386557736 1319.0191839985196
-720.9598353015225 3194.466287984707 1629.349911752908
-577.7929142786965 2747.276640308097 1401.25909867428
-30.18781007989503 428.4825110208154 218.54916551956183
-26.14578495890015 435.60903927064186 222.18407887539652
-10.609606883310509 369.6886529597472 188.5611303339255
-6.519844703487634 357.2172285225509 182.20003196121473
1.1502952439795782 434.71822323941353 221.7297147059172
24.302435227799048 546.9610431741802 278.9796000603138
761.9862073853694 3300.4733957008752 1683.4192479209491
-22.777309596097062 379.824875561578 192.89651086692004
-18.86083471561098 380.7164832506897 193.34931957787526
-10.737433472266058 374.4752294269079 190.17965860118878
-2.829139266351005 362.884329468456 184.29314535877103
1.0017940137117227 378.93326787246633 192.44370215596481
5.296056487680935 404.7898908567052 205.57515477366596
16.955570529631135 499.3003059025438 253.57287813491837
553.4853982277975 3730.486571243292 1894.5516466366043
845.6920519021595 3237.4275191645297 1644.1484294783725
-1198.4269498955475 3107.3250691539024 1571.2590221245177
-25.292489526398537 359.63584229437754 181.8545048581794
-26.680463587916513 445.30591887070574 225.17468467551245
-13.738565703047925 351.6042726153468 177.79323800030443
9.437612481080855 401.5784839515382 203.0633428937487
11.808343761707397 348.0346860913331 175.98823050791555
570.6086098748157 3378.6136449789415 1708.4395915460725
992.0523920729357 3405.385543909044 1721.977147738989
-1788.8477608354442 3221.710556182394 1622.045033956495
-1734.1714622346824 3285.126538851912 1653.9732838624864
-1127.8076838121078 3260.117418925905 1641.3818613643489
-33.514117635475976 476.9596443031324 240.13641478590748
-17.31486465695434 350.1276789640972 176.2799149739246
-16.49325273487733 422.4754901786173 212.70510148639372
5.855991975365263 448.37779295912446 225.74621764517894
10.171649007387144 433.1936844326202 218.10142541416693
14.26084592760047 420.6891244696168 211.80571416509818
33.9225761935139 619.868901023172 312.0874004895502
-1639.0056375044676 2907.178593637829 1457.332022805364
-47.73995592865869 524.7582516806291 263.0547039934651
-26.673220964564216 379.93570181306194 190.456983300209
-26.520059999211604 443.40731317477344 222.27450286330273
-24.161303488148025 488.9995973923409 245.1293408593278
-18.411072820328187 472.014236605404 236.6147933706126
-12.348048493105967 431.78575053107977 216.44875984470812
17.167515161251522 506.878924536485 254.09202242639648
-1991.344529702514 3277.458761869834 1635.7973787247176
-941.210525401531 3297.143198878061 1645.6219876059472
-65.81348924099058 589.6383631100792 294.29169330592106
-56.173639880521684 554.7432247773128 276.8753411982869
-32.57270983672665 464.3737639668151 231.77145497082404
-24.27440975734288 406.215200078871 202.7442014581004
-22.703674575700337 459.9000282831271 229.53858931599913
-9.996039256323877 349.8461304644021 174.61009420730673
1.0324371247193753 391.89924589106937 195.59903136266075
8.347043927711512 356.1093604215653 177.7361061240616
15.47195810828841 457.2157868729143 228.19886992310418
34.99793163480685 640.6389499041226 319.74636177092486
-1133.0597465706066 3025.0840942286723 1503.2465608956813
-54.72399756102435 540.8972151906803 268.78653723534387
-43.02289043655953 473.7328258872018 235.41072549254454
-17.270694083849868 350.1503495688013 173.9992318857938
1.3082251237882496 497.016480845741 246.98100689671497
8.388988872071872 358.21007628521875 178.0043292949297
15.44168030377121 456.7178472636539 226.95551985103538
25.84607525041169 584.7779495356195 290.59206757397277
35.04681142759289 642.0915617412546 319.0727602611615
697.9880523186799 3799.713384195458 1888.180922995967
-53.63676582140135 530.6099059239665 262.52071867827766
-39.33806548137265 489.3800821528475 242.12214932151963
-24.5588386460883 498.343087320482 246.55662092081485
-13.738565703047925 353.14240360480204 174.7181810122321
-3.3296258196121165 429.32794752969585 212.41118960624158
1.0725088852678444 407.8167351273729 201.768457767933
6.124294396547337 470.55777130081486 232.80975896299964
11.052492838954691 472.3503723343418 233.69665328285868
45.74240304630123 534.1951079910203 264.2945073179958
43.645824681574545 410.50563667766323 203.0987992477216
935.9020806636964 3747.4324605880133 1854.052575665336
-1770.0440654058718 3310.1997852248173 1630.5451180196062
-1271.3274505978522 2879.604691211833 1418.4416880333158
-1345.5223677558306 3259.9636909233027 1605.799717854539
-40.202638349095125 500.5667967900944 246.5702373590624
-30.31333111972827 433.28631335056554 213.42907642370454
-22.777309596097062 382.15314593652363 188.24179411283257
1.1974384916836591 455.7131411637418 224.47613006882384
5.716008103444181 439.56582513825487 216.52225144433794
34.80241246366268 638.7160561192602 314.62008781299716
36.47562275385889 562.4648415544608 277.0601054195916
44.86411889713196 596.5536198304887 293.8516269601729
42.02578315409252 395.6092426244294 194.87002629990414
-1988.0827041010355 3283.4117619534068 1610.2348280502522
-1689.5434894255343 3274.433332196903 1605.8316701939484
-46.932170093726185 465.08266138689214 228.0835769565301
-47.73995592865869 527.0338267067677 258.46536616502544
-26.673220964564216 381.58326465140766 187.13420889290597
-17.62405866868567 358.239347284498 175.68599846651642
1.1738668678316186 447.12580187388477 219.27726124392277
5.716008103444181 439.94305806868175 215.75473495887982
8.556768649513309 366.31993406535133 179.64884053718973
15.199457867633622 450.7171737764862 221.03852438644424
-1661.6605783670755 3281.72409903479 1602.308003417038
-1347.7344182088182 3431.7919863674324 1675.5789334747176
-1099.3807504119122 3197.254749278692 1561.0656835043324
-638.6822453878328 3063.3618438142385 1495.6922189618517
-39.77035191523389 496.03277729112926 242.18894246610213
-22.884245321900337 384.6051244213828 187.7841800280647
-14.819518842120225 381.909294110018 186.46793577553154
1.2657962008545767 482.5536257343051 235.6077212034363
15.44168030377121 458.2911529320216 223.76152293063785
741.2141137427453 3238.5908140529527 1581.2480953765075
-21.864433686715305 445.19037482896454 216.4036278800475
-14.924127210417543 384.93228369049865 187.11263178315218
-13.166138662421476 463.17786472104393 225.14720880449386
-3.3921866387697555 438.8947533667368 213.34337455649128
15.926125176046385 473.0709841616876 229.95617831293936
38.86079106790708 600.7821623954511 292.03560287650856
554.3001790348623 3641.56732865147 1770.1379581541662
-1579.0660578042846 2866.033488128413 1386.9780261152234
-53.3649578864956 530.1801898579256 256.5735104842546
-40.202638349095125 502.27596933908745 243.06964151139906
-29.936768000228543 429.3649415318006 207.78533871135727
-28.60530665237542 481.57283798640105 233.05064195089338
-14.714910473822906 379.85745351450703 183.82686150145233
-7.657972207837097 423.96412465718674 205.1716866520949
1.1597238935203944 442.8669837183352 214.31946885951317
4.829443581277329 372.6563643483552 180.34199208910255
11.010547894594332 472.57147652871134 228.69455518545612
23.47124444639224 533.7807344410015 258.3159451904295
933.5587368799561 3232.3888994563854 1564.2707574685198
1165.3421977125029 3714.861873588555 1797.757008095957
-1964.1626496901945 3254.933833581951 1568.1756084710355
-45.17393233849936 564.8611994619107 272.1411864133239
-29.56020488072881 424.3215708876554 204.4314175449371
-14.85438829821933 383.78129341431253 184.89975344828704
5.739338748764362 443.2403670418821 213.54619412337377
14.048901295980082 418.0153055029132 201.3931586854582
50.42409194869112 591.888051110806 285.1622958110906
-1381.2601500050575 3529.0628745899658 1692.6639439625355
-1341.8867267874732 3560.6206672855837 1707.8001826029772
-45.46212329440685 568.9419197409986 272.88475948910576
-15.06360503481397 389.51332698591347 186.82443121916592
-7.479123600010753 414.75956114240785 198.93342213151925
-3.0029193195666686 389.51332698591347 186.82443121916592
10.150676535206964 436.39919041940306 209.3125571992507
16.501403461873156 491.39991483176584 235.69285882973477
23.154600339189646 527.4659636267578 252.99141727595384
49.50310396789311 581.5650368192458 278.9392549452824
-1744.9801427749803 3227.90139084298 1541.292188715026
-1617.7113341291995 3096.1503136657157 1478.3823034613515
-1491.928506667324 3399.358272101064 1623.161217469808
-1230.788330410948 3355.1404448292424 1602.0476258435747
-56.173639880521684 559.4908756842739 267.1515675156042
-40.49082930500262 507.15140666864824 242.15996926414442
-23.57932753962161 397.9604454463948 190.0223246360991
-21.157704517043697 432.25182169801155 206.39613038705548
-17.818292066643377 461.1287701204257 220.18459838786086
-7.657972207837097 425.03258459240806 202.94901338685415
8.976218093116902 386.22918514978903 184.42075951077192
14.381957145669265 428.6422031452098 204.6725718869548
24.144113174197752 550.4668293022694 262.8426712653525
31.869624896500092 588.367824106688 280.9400355164096
675.6933749934084 3606.008934248965 1721.8349416005715
-1241.5132774068927 3217.039205831686 1529.2163836886639
-1016.6077474782677 3252.262262829843 1545.959628765547
-56.445447815427436 562.6657566628693 267.46260725380057
-46.038505206221835 577.1162415851902 274.331630875086
-32.6982308765599 470.54391528307366 223.6725816681061
-27.642885120145966 466.93129405249346 221.95532576278472
-19.34671101976021 395.5820247485341 188.03952163268804
-13.089442709048146 462.4155175142682 219.80875588113304
10.779850700612355 464.2218281295583 220.6673838337937
14.624179581806853 436.22401359256156 207.35865056755324
23.827469066995157 543.6994952023231 258.44701375086345
31.478586554211745 581.6320181234155 276.47820075673764
49.96359795829211 587.9541052769308 279.48339859105
833.0495104452315 3052.664939840286 1451.0812399965423
-1683.2130025715269 3067.847548779178 1451.739445441085
-1513.0378493182875 2952.1479358611655 1396.9891068976383
-1365.1407152558645 3256.7633229968706 1541.136482594057
-1268.1381699404842 3095.8685487827593 1464.9992930570763
-1253.1565642994276 3209.7603552489277 1518.8941575607819
-865.9408286560446 3297.4389681633593 1560.3846484882376
-646.6885478431067 3280.2648068708418 1552.2576451106947
-47.57729849789664 528.7833871643545 250.22615662434734
-28.68155760189611 413.0837742463419 195.47581808090038
-21.025192797730273 430.2579355388594 203.6028214584433
-12.245787221941528 432.9696452166253 204.88603251805534
5.529362940882739 428.45012908701545 202.74734741870193
10.024841702125887 432.0657419907033 204.45829549818464
16.83445931156234 502.57019361261723 237.82178304809764
38.395392372483045 596.5761291085025 282.30643311464826
522.129138759932 3447.4869036664068 1631.3889937867705
577.460523220899 3360.712193977897 1590.3262398791853
585.7326302817847 2757.808742287941 1305.0256476254422
-1690.413563404054 3034.190702585244 1429.3364825489007
-1496.5781720403043 3277.5411196977752 1543.9731891099186
-1291.8281568972961 3271.208580962505 1540.9900777867695
-984.3804590917064 3368.0059587730657 1586.5890651549066
-39.98649513216451 502.07985686786236 236.5181120496839
-38.221156629222605 550.9308699685192 259.5306851139775
-29.353856732998327 496.6519665233449 233.96115948698463
-18.551640703879652 379.95232411622015 178.98667938895
-12.220221904150417 432.42193077988867 203.7038874950431
-7.739267029576344 430.6126339983829 202.85156997414333
5.506032295562558 426.99404043537123 201.1469349323438
10.38137372918894 447.80095342268805 210.94858642269105
17.076681747699926 510.2216923846385 240.35354089373286
22.79837571858673 521.0774730736733 245.46744601913142
31.576346139783833 584.4028604263767 275.2985592506231
58.559485779073555 690.2467221444666 325.1591342232592
695.1834927736759 3199.7413580930256 1507.323535711229
-1875.6955141134965 3216.853511930833 1508.529907816967
-1702.0586401960757 3107.301225146811 1457.1558242690205
-1606.302620121271 3255.7853163251552 1526.7868135406172
-981.9282626022025 3607.9823374737884 1691.9481234592213
-44.982165905289655 344.04850394982174 161.34009709272374
-28.116712922646514 405.61507834084244 190.21148288826376
-24.27440975734288 411.04742314005017 192.7589581055173
-20.141781335640765 412.85820473978606 193.60811651126846
-16.667600015372866 432.776802336881 202.94885897453142
-7.901856673054838 440.01992873582464 206.34549259753612
-3.1419433621391994 409.2366415403143 191.90979969976613
1.0017940137117227 384.79108994387957 180.44616122212523
9.961924285585347 430.06062993727716 201.67512136590466
764.4541789072654 3365.337603109177 1578.1608970885634
1230.0014161483487 3603.4553834744484 1689.8252274448432
-1459.1718220161354 3302.8454939154253 1541.828992892069
-891.2508220406943 3277.4738412872684 1529.9850390372055
-912.2287841351917 3482.2593232145346 1625.5826665800332
-761.0143090372957 3145.1787954404504 1468.2272796511309
-723.5734654908475 3261.1634931691674 1522.3710687019359
-46.75898259599057 588.0786627026367 274.5259304216606
-30.262810402326146 512.8698352691716 239.4170672090291
-25.309738388864382 519.2127484262109 242.378055672745
-12.603701671017063 446.7223123457626 208.53818751599178
-8.096964245229032 451.2529646007906 210.65317927578886
-3.044626532338428 396.88513754045437 185.27327815822395
0.9664365779336619 371.5134849122975 173.42932430336032
5.960979879306074 463.03266046386346 216.15215785126125
519.8847072263968 3561.0926724520223 1662.3835232005024
-1310.85545626384 2612.684812050655 1214.1001082611897
-1287.0213952447075 3152.270880488746 1464.8427547087456
-1159.072075227164 3093.3245032644168 1437.450700895147
-766.0570428626652 3168.5944926431757 1472.4282465340498
-52.45702142075784 584.9294355337288 271.8134570734007
-46.83103033496744 589.4637722432925 273.9205381359852
-33.5768781553926 485.1740279233254 225.45767369654166
-30.262810402326146 513.2869155226209 238.52157628456558
-12.78265889555483 453.4336709563789 210.70810625845016
-7.137685348705913 398.11476309970067 185.00171729491925
-3.9621852133171322 516.9143848902719 240.20724113463316
1.3129394485586579 505.12510944540605 234.72883037191346
38.395392372483045 598.5324456624201 278.1347002611542
840.7673319715005 3406.193736224318 1582.8392942134776
1167.8644831130555 3581.2191332134803 1664.1726232292394
-1565.6665486913764 3094.9210138754793 1431.6298117432366
-1182.319471278921 3376.2774696823412 1561.7779764471672
-992.8934873315933 3192.034371202364 1476.551920205561
-591.8867136440831 2671.978728694842 1235.9877318979732
-52.37569270537682 584.4953469019968 270.37231635268165
-23.632795402523243 401.1598498923642 185.56609290044298
-16.03994980558895 417.49667635856906 193.1230831090583
-7.723008065228495 431.1106984137398 199.4205749495711
-3.5868202983712987 468.32235869787314 216.63371931363932
994.8415079971563 3357.217838805102 1552.9614878704492
-1522.9152376196726 3249.1065474511934 1496.0734083960547
-1013.6587044902706 3368.0981487137333 1550.8639078368942
-52.37569270537682 584.9663451379839 269.3517682435167
-38.15839610930598 552.266363111637 254.29483709946916
-18.201856083733546 474.1497393820304 218.32550158868898
-3.9899900218316384 521.3830467534204 240.07440213009096
1.3105822861734537 505.033055740247 232.5459365580672
43.340253511363436 676.7079613785684 311.59482506431664
685.1740346010642 3320.8648413423434 1529.1150072954922
-1363.441805485568 3063.5370219521355 1404.1513148975935
-851.4112661557853 3389.8900756259686 1553.7330128347553
-27.803288708850875 472.71194404009213 216.66429784769986
-12.629266988808173 449.07634683808755 205.83108295531488
5.541028263542828 431.80417965200724 197.91450284164893
66.84837760625565 791.7925062671544 362.9126988948973
858.3185950900664 3286.257072509487 1506.2335321527596
1187.3926843413894 3543.5214574389984 1624.148909635258
-1886.4692808054187 3405.33370844833 1553.6252231814287
-1149.5832063483485 3290.700513881274 1501.3257900740657
-1052.4145126202848 3098.7354023443795 1413.7449933625292
-964.4519712625876 3209.7294478775602 1464.3841270061664
-750.1022528928456 2874.9277367610803 1311.6365763433917
-712.604681813199 3378.040090694269 1541.172977203485
-56.116813612903734 627.7532083434004 286.4016574927026
-41.28335443374822 521.3080991025629 237.83789817872258
-31.00369683881111 449.43490568353593 205.0469837701378
-28.391435200768875 483.0970342468777 220.40475380960157
-24.249644634356976 499.4732048993142 227.87610139636772
-13.191703980212585 469.45022536984726 214.17863082062976
-3.3018210110976103 432.1489477726307 197.1605613174402
6.065967783246886 473.08937440372205 215.83893028435557
1027.405320597931 3363.48349455877 1534.531779348582
-1499.0966610475489 3055.6726162046634 1387.66021149882
-1143.014331017551 3023.804755189418 1373.1881890308644
-53.5142947207111 599.1157870866116 272.0740223975636
-46.903078073944314 592.7422148835625 269.17961790397254
-21.113533943939224 435.22393043677863 197.64647827664956
-17.155772400760355 447.97107484287676 203.43528726383178
-14.469969869768068 515.3488381322525 234.033277624652
-8.552215246968817 478.92842554340075 217.49382337555997
-3.572917894114046 468.00230176674523 212.53198710083237
1.2068671412244754 466.1812811373026 211.70501438837778
33.1202049451035 350.54647116769826 159.19224714751064
87.40692087698999 699.2719217059539 317.55752158256666
-1174.392408849071 2464.878765971239 1114.180267759263
-1527.5985106456208 3269.4953834768226 1477.88495405554
-1158.1645573495666 3320.5242969313103 1500.951162925972
-66.74098958756373 476.5736024410196 215.42191498635657
-37.970114549556115 551.2945114279481 249.19743511806067
-28.44490306367051 484.7746778176337 219.1289842691046
-22.041115979133206 454.704068103382 205.53639689902855
-7.723008065228495 432.83453376574437 195.65087881170052
-2.9612121067949095 388.1842344930676 175.46794605007247
1.2846534999362091 496.62067558385405 224.4836398997406
15.163097386269907 658.819721921333 297.8012323807568
-38.47219870888909 559.0241879453474 251.51731012406444
-18.411072820328187 481.50859907853743 216.64133726836218
-13.115008026839256 467.82937751380626 210.48675382323825
1.1927241669132511 461.4457407835984 207.61461488218043
-1447.5948902158345 3265.5076174657333 1462.3761486954272
-942.6044417571671 3253.64300063313 1457.062875936053
-898.643004695165 3328.4813529618586 1490.577365649028
-756.8861215624639 3025.477292313836 1354.8845536403971
-647.7781900004198 2940.599648819059 1316.874217746413
-67.88949610054283 485.5366273034573 217.43546984515572
-53.920938297616196 605.0954584627673 270.9769107280794
-28.391435200768875 484.6239644701801 217.02675655597312
-18.77249356940203 387.88170414279955 173.703147902615
-16.59786110317465 434.42750863993547 194.5475256509288
-8.096964245229032 454.50609097203335 203.53921801294652
26.513682295598283 358.6764934779299 160.62432264877106
-1667.0526635963802 3408.714686833295 1519.3709829291163
-1568.4535796955658 3468.084047670424 1545.8337680015686
-81.29314149038898 743.4870726372728 331.3954930611738
-46.84534005946747 526.103874495171 234.50098771896327
-25.45070274117888 434.7663962842038 193.78901068442104
-24.95637380402858 516.0567518919646 230.02267024516362
-13.115008026839256 468.56126322226163 208.85244218720166
-7.85307978001129 441.1600197589715 196.638849076839
-3.308772213226237 434.7663962842038 193.78901068442104
32.99386013057908 616.5279779240285 274.8058449831601
34.15252302131452 362.60978849753974 161.62654882713267
-1603.2216890841669 2907.7010406371332 1289.9750611068926
-1608.8805599961606 3232.2008424058167 1433.9364401364264
-1471.9595879753417 3069.493899547153 1361.7529881159842
-1438.747384271703 3183.7543931276755 1412.443614534834
-932.292640010034 3223.060002919375 1429.8811900229184
-670.5738643294687 3193.8093165627615 1416.904389659693
-37.970114549556115 553.0207889297283 245.3426318672336
-28.926113829785237 494.5194162165008 219.38903114078244
-20.053440189431814 414.99411268445726 184.1083551532629
-12.092395315194869 432.36170770869666 191.8133303689281
-8.47092042522957 476.23773724361723 211.27853091376645
32.896100545006995 615.1784974375324 272.91833263908796
532.3490968609573 3438.783814799401 1525.585092701707
-1470.4590368708205 3128.5829310639574 1381.4372383337789
-1035.729138667996 3066.377188574966 1353.970065173926
-752.1223490973217 3422.2306272252235 1511.098452808967
-67.88949610054283 486.66845594328225 214.89023707414339
-32.34805705548996 553.4481500858755 244.3770553192796
-20.936851651521323 433.61061676149586 191.46235408485708
32.896100545006995 615.6538925748664 271.84422847913254
1070.8628243485373 3312.4557875387686 1462.6269707621677
1136.9505887583343 3317.9445295230917 1465.0505448645076
-1408.9292568099077 2461.7631675161324 1081.8701895610852
-1246.1625507310644 2210.917831740967 971.6312784641209
-764.4207345372939 3065.0736648731913 1347.0068407030546
-81.89235383552698 750.7050194731233 329.9120697062439
-29.43468384089557 429.36665138157906 188.69361060027856
-26.199252821801785 448.5920238315005 197.142578239097
-26.899879020625498 557.5358010477221 245.02006152573483
-17.295250225156778 454.08498738862096 199.55656899304512
14.97434513664829 653.6626632973293 287.26489971982704
596.2199299866761 3228.03158373443 1418.621899736849
670.2221403331171 3121.834288296769 1371.9514118271852
-1304.793842589859 3228.6702387387163 1412.1842972795303
-1342.4408816094121 3485.204763950646 1524.3896330452137
-958.1468320741429 3014.280671240175 1318.4126952467805
-32.34805705548996 554.2978134043483 242.44367192228032
952.6908662537885 3477.875206087448 1521.1837663090514
-1557.5428402094487 2977.1507551091468 1295.9870297780903
-1420.5783875809732 2836.8661645542657 1234.919578113154
-1598.2026973669135 3342.990961850308 1455.2413645121396
-1499.2662753124418 3197.2050148030785 1391.7791108211275
-1320.9606809823085 2993.654824586192 1303.171435856318
-1225.8122885399769 3108.266418176781 1353.0631447329
-1137.8516646624582 3031.247427283905 1319.535916367837
-32.88273568450632 563.8890404656992 245.46720767278273
-23.012868587431665 477.70112208557606 207.94864259759316
-14.214316691856972 509.79236829094106 221.9183210830361
-9.137537963491397 515.2937247832893 224.313123109112
40.61383394898262 551.9694347322779 240.27846994961823
42.497094137353585 452.94501787000877 197.17203348025149
1178.0191418348606 3765.678519012401 1639.2419868489735
-2115.2305674637723 3649.2473627961117 1580.9878826624908
-1268.3235564881063 3106.952871618716 1346.0460072152864
-32.775799958703054 562.4814265511734 243.68759669904625
-9.170055892187097 517.5196159459409 224.20849027448955
40.4315116649632 637.7236402170726 276.28528500136565
42.70524400283388 580.8331859818804 251.63825238253878
619.0264060511884 3452.8835368875452 1495.915866849121
-1645.805200110446 3150.6200497029063 1358.438184979374
-1408.6804903133805 2842.9961159662485 1225.8014050411373
-1334.829514251016 3235.1018464305853 1394.8638081265913
-25.35390896196886 527.0929491487811 227.26421398372506
43.16572900057942 681.3640562167171 293.78056929603486
51.46014263766431 495.8714155755084 213.80257064671
63.98971476144042 561.9876043189096 242.3095800662713
-1515.1775549086071 3117.1463405765417 1337.5584814991366
-1086.40323733791 3231.0986242532786 1386.4550769312984
-33.791689353834144 580.7890587394971 249.2149057510184
-21.409846044851335 564.2475982057773 242.11701286570457
6.987528273394009 550.4630477610108 236.20210212794305
15.393794580251884 674.5240017639096 289.43629876779664
39.103834228834465 735.1760237208824 315.4619060139473
38.97714074176309 615.709919866239 264.1993462866809
61.68943089746707 542.1923174941509 232.65315568528615
756.1864550509656 3235.693474401534 1388.4267138438856
-1777.49573961879 3073.4932286138696 1312.4798564795933
-21.305237676554018 561.9103419159409 239.95367812957255
-14.34214328081252 515.9274988786298 220.31753425644877
14.533923220864517 637.3222044971309 272.15695408149554
40.68129878942943 554.553087029971 236.81189510987275
64.93073997852042 571.106910523403 243.8809069041973
700.4695968434115 2937.3840132234286 1254.3568706151468
-1535.6705961115717 2997.550280055755 1273.8686425757035
-1420.4878869613735 3231.316866219145 1373.2124053065074
-1084.46919799835 2828.2075562208584 1201.9030821722863
-21.7585406058424 574.2927156139979 244.05711788984922
-13.856402242781437 498.82476260062 211.98550944919594
37.24640210296483 701.2997584901705 298.03128819241203
42.23493160973135 668.1674864355168 283.95106985261305
-1954.6070745359225 3384.7562783209364 1431.4502912665203
-1709.1128970469051 3074.371825043615 1300.1853257816722
-916.4558813304952 3247.523982954999 1373.4132590491838
-26.274767040889174 267.0964137994752 112.95798216797031
-16.336238068519073 588.5331324753954 248.89707105287252
51.36484607722419 496.43092082040397 209.94604271908966
-1822.566536686654 3230.560382534396 1359.5972252101785
-1767.525452253434 3232.4037836085954 1360.373029618287
-1662.9134175820875 3065.5759863935523 1290.1627306844662
-1701.125224340708 3384.4843722300434 1424.37689328724
-1081.2683377957699 2489.5131507062492 1047.7238531505543
-855.072257345276 3594.6320946887718 1512.818595811611
-16.259542115145745 586.2015415953997 246.70580177850889
39.0353155786911 618.4610603938886 260.28237892040795
52.08285682494116 711.5528146409569 299.4605015298881
505.8748749543878 3789.1109080168053 1594.6659608670598
-1972.2850092383635 3395.2666081123625 1421.944323747302
-1401.8930464742432 3412.7917549621684 1429.2838896672147
-1150.0983296635582 3247.686424113999 1360.1374528427737
-9.950486180883871 564.4942037937425 236.41128120982037
38.51727671540195 726.8324061919429 304.3988392048014
65.97632355305376 582.0193506435481 243.7508471297331
504.18921640499497 3286.426222413569 1376.3617564552123
-898.5559371404574 3247.2862172244386 1353.3130544793385
-14.26544732743919 515.0613158644788 214.65283808967337
34.36249432858829 648.9034140729904 270.4318013925455
-1145.168417671541 2997.4679751209937 1243.0650578807408
-51.23709069004254 581.9429350774194 241.33466455003597
-15.03240686117248 543.1467394055915 225.24568691336688
-10.113075824362365 574.5531835208808 238.2700973811466
79.35979330708052 701.1026789266053 290.7508101483767
1026.7980464341676 3207.152175537778 1330.0221512979758
-1901.6050854958899 3380.480048755263 1394.9923440534055
-1070.6448286051927 3202.9979132996955 1321.7523850547034
-1118.2554123815646 3444.262691184608 1421.3129543185642
-667.1396149070752 3374.0093459001123 1392.3221372149112
-49.4478589516601 562.0267622759638 231.92653682922355
-53.675565537770375 688.6676610124887 284.18629923975584
1.0866518595790686 426.142002317795 175.8521932208422
40.14063748032318 637.8264242934458 263.206102651586
60.93870472946841 733.9625809985449 302.8777471092163
78.41876809000051 693.2895916233107 286.0935898386804
-1358.6697533660213 2923.1595291905433 1200.3076134485364
-35.66306455539141 617.0086727753458 253.35606904119422
40.14158006585491 550.4050379330296 226.00728797527822
45.43540705270189 547.6298864812663 224.86775543086503
79.35979330708052 702.1133172960831 288.30173373653133
-974.670112600337 3532.517098136316 1443.3221925040104
-34.59298960534133 293.4507128168795 119.89862028924824
-34.86104661186687 603.564242134402 246.60536412804373
-16.00388893723465 579.495729411251 236.77140788980884
-4.073404447375157 542.467248298711 221.64224444637057
34.2647347430162 648.9241314972635 265.13858934625557
-1803.2299579699682 3368.284053641391 1369.36428096585
-1272.4108244071547 2913.436014494547 1184.4473772380634
-750.6120689419125 3238.592148385672 1316.638483568925
-12.399179128688186 449.2898146358841 182.6572266964899
-10.308183396536558 587.3190566580423 238.77253964035998
1.3860114824999834 544.7060020740203 221.44834906708465
18.83279440969744 576.2026076361235 234.25318557776643
24.2232742009984 566.9389001178579 230.48705719227178
34.02033577908598 644.7540432712893 262.12253563042674
35.2539511783708 561.3806756068984 228.227380160975
61.092202726268084 737.3911184539459 299.7838194853731
78.94155987726718 699.4099176290567 284.34269310484507
-1044.8434311922556 2887.688027065662 1168.1108073901314
-1037.4638589316596 2905.301533490782 1175.2357208220456
-10.438255111319355 595.1511118382521 240.7470749099404
26.934949497666135 429.2133407805462 173.62289047243365
61.39919871986742 741.6213231629308 299.99635502796315
-1726.4424728209829 3283.0585722444966 1321.380872879552
-1360.819547279575 2936.1063524028914 1181.7379097665391
-564.8250952265674 2730.1614518552005 1098.848236474858
-44.5365303366343 323.7602265366853 130.3085404450307
-49.36653023627908 563.1015974434613 226.6397823786064
1.4048687815816159 552.8971203892964 222.53263640469427
-1924.160056052208 3488.664082001285 1397.0636789188004
-1057.9308450469714 3272.363195597267 1310.4442437969055
-1912.5170776667878 3268.1425251514192 1302.1399445900224
-1849.586485164583 3206.8300161519896 1277.7109405130066
-1552.5811643685768 3354.5374241960703 1336.5626321530901
-1072.3090078106366 3420.4948202409114 1362.8423183571524
-27.30082616373043 404.10517295078665 161.00934505305847
18.257516123870666 560.1733776766076 223.1922645218259
24.737820875202612 580.6108806764175 231.33526588083114
27.27492437461204 518.3693942679056 206.53612537840604
-1446.182771270523 3254.6066352045113 1290.1692331174106
-971.0128690262786 3302.017357396865 1308.9634721602522
-861.135742358098 3577.1854705132705 1418.0437615069397
-734.4300832003518 3395.9091797778005 1346.183435754899
32.553941995504694 619.1282545119122 245.43065103004727
-2088.197392216083 3599.1905132507477 1419.5029585477503
-1789.1974210150245 3302.4363716826456 1302.4645910686259
-1745.1003549990683 3384.2995831497083 1334.7510372697636
-1502.2759867914172 3250.34160074906 1281.918670758811
-1326.8035022339104 2988.0072185477907 1178.4552863415286
-1309.8227734220159 3215.921841382227 1268.343687696969
-894.6486952953708 2948.0058765809304 1162.6789546750636
-10.259406503493011 586.9964367695069 231.50849491952195
18.075849296767476 555.3674687026871 219.03418615999146
23.273341879390617 546.9950948026466 215.7321632530569
27.47044354575621 522.8082368691962 206.19298596635713
35.48665052608281 567.4608976694124 223.80377480334135
-1869.0260696470768 3200.4434682495576 1255.7888383556938
-1903.6752107777284 3356.8351211483146 1317.1537379612078
-1764.410737933983 3207.890689816165 1258.710976432147
-1720.636331330857 3339.1479699276215 1310.2136600296317
-1594.6079079058445 3148.3129172833055 1235.3338718205225
-1419.2741405469949 3265.6066569573727 1281.357546524658
-1118.8470200229158 3370.7986615857035 1322.6327468545571
-24.916024112162514 433.80065625488476 170.21454295338958
-27.372523037798533 730.7586162233574 286.73479875195454
10.5281810344502 467.31315330461837 183.36416429742826
25.655103085250033 410.52808885923645 161.0828614644738
-1102.7130968203592 3638.5905109653495 1420.3855439678757
-934.5696913010045 3408.500430010807 1330.5659767994002
-41.73574574455342 619.4732948776133 241.82191160743403
18.19696051483627 559.854812363076 218.54882537754565
19.156968485756902 450.86477401618765 176.00271461353094
-1540.3707437180974 3099.472050039469 1203.7017948911316
-4.546086192121762 609.6405175115226 236.75818762670679
15.532513717322805 478.2042591489467 185.71399121177458
21.729701856777975 511.7624527734341 198.7465519985658
35.370300852226805 566.7606034357887 220.1054710658069
-1094.4424908615895 3505.4716499485216 1354.3384035783624
-820.3649955688844 3223.7653066051334 1245.5012035036775
-39.727409107221526 590.4639580674333 228.12565446117705
-31.278699797457236 545.6894399201398 210.8270266347371
-4.546086192121762 610.0528097568742 235.69380413524456
10.821795644972715 481.32607008340534 185.96024913422966
18.19696051483627 560.6142793025709 216.5932359102171
22.877536745387378 539.1598226903261 208.30431007671461
20.725032141282266 395.5082436344261 152.8045458002197
-36.58938311139044 544.1897111052864 209.15677929999046
-27.589417257244328 481.6498986798075 185.11989385728145
12.205978808864574 543.2562810690853 208.79801981577094
16.319736634769967 503.1187895124346 193.3713619943308
22.32340955778284 526.454540417464 202.34034909981926
27.86148188804456 532.0551206346711 204.4929060051365
36.47562275385889 585.2606326981382 224.94219660565014
56.103517830278854 682.3373564630607 262.25318296448205
-1099.4691785423279 3144.028347777398 1202.098892925256
-976.2370427047624 3229.961386397576 1234.9548341460295
-843.3859307668534 3084.2488426503173 1179.2425859890657
-26.884350652411044 720.1562258277996 275.34707262191694
22.956697772188026 541.7517652141684 207.13528160922414
25.247879226754 405.3797691430156 154.99433141104015
42.502849481493435 588.4545035947001 224.99177140312278
-1906.833463733766 3232.111868588948 1229.31560997429
-1632.453646948638 3027.4176814226726 1151.4613246693827
-1280.774963424365 3310.6247075020397 1259.1775276254873
-1131.8065073229845 3238.654605165039 1231.8041031118898
-1001.3628659554056 3315.298090770676 1260.955022723773
-747.6046697015688 2735.79856545976 1040.5456305363641
-39.915690666971386 594.4543517705525 226.09737650192264
-32.02724987808014 559.8713155826431 212.94391277460952
11.304162505116848 503.790716359006 191.61397159518287
14.745290799875647 455.1875303651873 173.12802257301308
21.88802391037927 516.876189511188 196.59095787038243
28.154760644760817 538.3737525469155 204.76743532249597
41.55834171523802 575.7608186960069 218.98739610878042
-1585.1779380187609 3144.464118711988 1189.7013936836602
-733.6615469806079 3265.1172630647084 1235.3502573913318
