# .PCD v.7 - Point Cloud Data file format
VERSION .7
FIELDS x y z
SIZE 4 4 4
TYPE F F F
WIDTH 859
HEIGHT 1
VIEWPOINT 0 0 0 1 0 0 0
POINTS 859
DATA ascii
317.25289486885606 3719.13956698306 1167.2210079076956
360.2021734660282 3790.6981784565664 1189.6790827135133
409.5700463439259 3060.8003414267973 960.6067196941733
494.59170929906986 3229.6786645042735 1013.607776235903
544.6890949262219 3346.0806725011776 1050.139577920033
536.9391946189421 3114.2307713270156 977.3754155491838
697.4653050847998 3466.299139776669 1087.8691435938067
697.0381305848274 3306.9619648956605 1037.862497026186
768.4280420824638 3413.8228246960975 1071.399888736207
822.3968651163137 3435.7674655479727 1078.2870316766578
1125.8103567433363 3804.0557859316214 1193.8712566772658
1348.6878278450479 3474.88617315349 1090.5641125705047
-1702.7768974081823 3033.833174039406 946.3298960182877
-1722.7135549447219 3092.0659693875505 964.4941891765997
-1822.905087343443 3480.6028170382865 1085.6887353312388
-1761.4615049020697 3418.5514777328863 1066.3333409822178
-1654.7396602591557 3440.508105487105 1073.1821728287946
-1546.4179364629226 3274.4014433464954 1021.3692710329537
-1252.8940960415819 3052.925893825683 952.2854019718326
-1133.4752161645038 2888.7285036637013 901.0680507713463
-1155.7714845259002 3165.572940564717 987.4228870977477
-983.1718918002655 2994.693098477538 934.1211088135207
-873.3575421474168 3100.6576932913754 967.1741668556949
-838.7416701796677 3080.6103375157845 960.9208856044728
-875.9411577806413 3332.6342386946403 1039.5335641912657
-840.0934494473439 3315.450790886991 1034.1736088330754
-757.229468088856 3104.4762372486307 968.3652680464039
-736.93347182568 3143.6163128104986 980.574055251171
-699.2641711072766 3246.716999656394 1012.7337874003135
-637.4042713866029 3096.83914933412 965.9830656649859
-620.3217701610778 3160.7997606181475 985.9340106093614
-613.3651093072398 3285.857075218262 1024.9425746050806
-590.2638777110675 3333.588874683954 1039.831339488943
-542.216340204959 3238.1252757525695 1010.0538097212184
-580.3268985320469 3677.257830836939 1147.0304466527516
-415.4310838799778 2803.7659006147687 874.5660492780714
-393.1096679751423 2838.1327962300675 885.2859599944522
-442.6565213981498 3435.7349255405356 1071.6932963404083
-326.5666994076201 3273.4468073571816 1021.0714957352765
-267.7859940869597 2973.6911067126334 927.5700522646213
-275.1603393307343 3425.2339296580835 1068.4177680659586
-200.03121333269019 3285.857075218262 1024.9425746050806
-171.1620321442179 3346.9537785343477 1044.0001936564245
-150.2962433624693 3630.4806673605603 1132.4394570665665
-37.589271731365685 3092.0659693875505 964.4941891765997
23.677222442768 3223.8057359128616 1005.5871802560597
120.36718544745058 3289.675619175517 1026.1336757957897
162.54757314128776 3508.287260728388 1094.324218963879
283.39522317428344 3324.0425147908154 1036.8535865121705
355.24596416143163 3393.7309420107263 1058.5911832426095
440.1000591509679 3547.427336290256 1106.5330061686461
464.21343157933745 3471.0564571451478 1082.7109823544663
446.69831666849973 3114.977233131083 971.6407963208536
508.3263092027959 3321.178606822874 1035.9602606191388
548.5719655772499 3371.7743142565078 1051.7423513960327
723.8520053515855 3779.4038816935204 1178.8924035042169
765.3847504644665 3331.6796027053265 1039.2357888935885
843.4078375102878 3525.4707085360374 1099.6841743220693
872.8019794055558 3509.241896717702 1094.6219942615562
960.840796014197 3590.385955809379 1119.932894564122
936.4640170963469 3380.3660381603327 1054.422329075128
1062.8417814853067 3593.2498637773206 1120.8262204571538
1050.9654857839612 3444.32664944436 1074.3732740195035
1202.519363089181 3824.271773191271 1192.8878424950474
1165.381821589337 3004.239458370677 937.0988617902931
-1758.8804341470193 3158.6951080376775 979.2314407017606
-1609.4672002344516 3125.264709252882 968.8676365213669
-1664.8396453836913 3402.2594420411874 1054.7391568731996
-1378.4458033625879 3032.6147469064485 940.1450935071332
-1216.6900578545317 2842.5390509586114 881.219464024324
-1226.2534460944812 2989.632805611712 926.8202024180557
-1288.7997107354292 3488.2233246306614 1081.3889390513546
-1144.2695367004012 3135.771406013818 972.1248321209192
-1122.3732232410798 3154.874491033701 978.0470059382869
-994.3696045968892 3212.1837460933502 995.8135273903903
-868.7863973763251 3086.1033849621217 956.727180195763
-754.7053159446338 2980.08126310177 923.8591155093719
-781.2434710426508 3334.443490220602 1033.715439821544
-663.0120334361059 2949.5163270699572 914.3836374015834
-699.7589282849972 3567.5011274631765 1105.9659603934308
-609.4447047736084 3266.6275384000173 1012.6917227698884
-592.9684086513244 3350.681112487503 1038.7492875663065
-510.4225161543549 3236.0626023682044 1003.2162446620999
-393.1096679751423 2839.673588205629 880.3311379517188
-410.92398943907153 3191.170352571479 989.2991361912857
-276.2339861397171 3440.4656120809536 1066.583504507935
-238.3435831806327 3377.4254315153394 1047.0403309106214
-135.27847515901456 3269.4930011529996 1013.5800488424936
-102.34739808954203 3235.10744811721 1002.9201359712316
-72.71230203259013 3321.071330706684 1029.5699181493865
-40.66465209839622 3346.8604954835264 1037.564852802833
26.145206541036973 3561.7702019572116 1104.1893082482204
88.2795577514076 3290.506394674871 1020.0944400415981
120.26239683562748 3288.5960861728827 1019.5022226598613
152.33029711526396 3289.551240423877 1019.7983313507298
187.240575339226 3341.1295699775615 1035.7882006576226
233.50386943996466 3550.3083509452817 1100.6360039577999
240.1907500623701 3181.6188100615373 986.3380492826018
255.47892175303724 2998.229193870659 929.4851806358713
420.6774634361708 3147.2332570257477 975.6781364113399
545.6209838824685 3355.456883742474 1040.2298310206486
551.7445032940967 3203.5873578344026 993.1485491725748
617.9455406172308 3398.438825037211 1053.554722109726
601.5339978799485 3142.4574857707767 974.1975929569979
738.1651797553138 3672.568095072534 1138.5379163889536
752.3426562371146 3573.2320529691415 1107.7426125386412
728.8215275403597 3311.5197881967424 1026.6088312407026
890.2292401562651 3450.017154590895 1069.544591416619
917.9210263437942 3431.8692238220065 1063.9185262901196
990.8072764156593 3518.788260662475 1090.864417159143
1112.1655647911603 3822.5273124786168 1185.0269808552905
929.563003360688 3144.367794272765 974.7898103387347
1115.1987217480316 3496.819712889609 1084.05391726917
-2003.100241273439 3653.524892685593 1125.648639019621
-1840.9041501915956 3518.7754786472283 1084.1324323490044
-1662.0858962647458 3459.523963254472 1065.8770790612157
-1433.7809250322052 3351.5332981031584 1032.6052254883105
-1404.3277782256798 3352.4889677062674 1032.8996666703715
-1397.8884091719087 3486.2827121415235 1074.1214321589268
-1302.7175491711112 3402.1837870679337 1048.2106081375491
-1142.4216701594037 3212.961205652358 989.9112540894495
-1045.659843315553 3101.1478620886082 955.4616357882998
-988.2927045545365 3101.1478620886082 955.4616357882998
-913.3765801627425 3043.8076859020703 937.7951648646332
-857.4287125998494 2949.196395194282 908.6454878405833
-1002.6940500824253 3563.6919499933497 1097.9711679058767
-862.6537351491531 3171.8674127186723 977.2502832608218
-932.1459184059246 3550.3125755498245 1093.848991357021
-750.45993076788 3488.194051347741 1074.710314523049
-699.9462800730253 3570.3816372151127 1100.0322561803043
-508.6449362044263 3436.5878927798567 1058.810490691749
-437.9827376212313 3403.139456671043 1048.5050493196102
-276.4686218246107 3073.4334435984483 946.9228415085275
-242.03066636783652 3016.09326741191 929.256370584861
-237.0464837250801 3609.5640909425806 1112.1043446448098
-204.15736561235926 3357.2673157218123 1034.371872580677
-177.65505846343666 3477.6816857135427 1071.4714615203768
-138.51915145554955 3349.6219588969407 1032.016343124188
-39.51573641410934 3254.0549985860434 1002.5722249180772
-7.612406303463165 3167.0890647031274 975.7780773505162
25.997968853356156 3543.6228883280614 1091.7879030825934
54.53834587320356 3193.8478135901782 984.0224304482273
95.48029961734244 3560.824941184023 1097.0878443596932
164.4494903236212 3553.1795843591512 1094.7323149032045
171.28926274600437 3058.1427299487045 942.2117825955498
236.72958044273824 3137.4633070067493 966.6504007066219
298.85906361170845 3509.2187826161385 1081.1880205283933
326.2943927269659 3439.454901589184 1059.6938142379324
383.13335378891685 3353.4446373093765 1033.1941078524326
428.01980994929977 3453.789945635818 1064.110431968849
546.3156280854423 3573.2486460244395 1100.9155797264877
584.2943755667084 3595.229046895946 1107.6877269138931
654.5915521602986 3601.9187341177085 1109.748815188321
666.6239988663502 3484.3713729353053 1073.5325497948045
843.636217645005 3530.243513884536 1087.6657265337378
951.5314148824515 3325.730218819216 1024.6553135726604
960.0589949654736 3249.2766505704985 1001.1000190077716
1108.8555480251946 3428.942535954985 1056.4549612352603
1296.8862040398578 3427.0311967487673 1055.866078871138
1163.5302457685723 3002.7138929683842 925.1341940360054
-1767.6005323100728 3131.4961943896305 958.8308424968724
-1765.3966325310046 3431.7373562333996 1050.7614942660382
-1735.2234743781396 3401.1395308225697 1041.3927654233207
-1525.3754224331076 3295.9595059728417 1009.1877600264792
-1456.8331835789088 3338.0315159127326 1022.0697621852157
-1313.6955060461487 3432.693538277488 1051.054267042373
-1171.0765205501484 3134.364740521896 959.7091608258772
-1079.174275723424 3117.153463728304 954.4392508518486
-994.6884354622855 3122.8905559928344 956.1958875098582
-1018.3196307557795 3293.090959840576 1008.3094416974744
-916.2443245274607 3055.0016308625554 935.4090203900786
-879.6562877806621 3027.2723515839907 926.9186098763658
-939.7735867626915 3341.8562440890864 1023.2408532905555
-862.6537351491531 3173.5682043295214 971.712844655609
-761.8864758876805 3128.6276482573653 957.9525241678676
-749.018017066672 3200.341301563998 979.9104823929869
-764.4411020808159 3555.084839920808 1088.5291824132432
-738.0056853662394 3591.4197575961684 1099.6545479139704
-700.6956872251377 3576.1208448907537 1094.9701834926116
-455.1778099849399 3076.9938178765897 942.1427942457818
-463.1897635105696 3349.505700441794 1025.583035501235
-405.020262562964 3148.7074711832224 964.100752470901
-334.6618202736591 3360.023702926767 1028.803536040919
-100.89694780660786 3192.6918452112905 977.5683001823074
-72.79595150286059 3328.4696954718484 1019.1420344218666
-44.888948149713634 3698.5121465340735 1132.4450988634817
175.8391337876951 3141.058014830515 961.7585702602216
208.68976440128128 3176.436750461787 972.5911629846138
239.61388845909815 3177.3929325058753 972.8839357609487
327.0196928497266 3448.9486330269915 1056.0314042400669
387.39160423000203 3392.5338924257735 1038.7578104363063
565.1641747618323 3698.5121465340735 1132.4450988634817
572.9654457284851 3330.3820595600255 1019.7275799745364
629.6801131085813 2689.7400900207726 823.569819830138
728.4430013101864 2933.566511263324 898.2268777955434
929.9100008609048 3607.6748523456718 1104.631685111664
960.2200353759207 3658.3525006823593 1120.1486422574148
972.4832878414974 3293.090959840576 1008.3094416974744
1197.2425844619854 3704.249238798604 1134.2017355214912
1509.6163253204663 3766.4010716643525 1153.2319659832613
-1824.447786426873 3210.65691687899 976.9432747591312
-1961.1834169726608 3580.8965553867884 1089.6003210439296
-1829.9047228955023 3501.4911548799478 1065.4387323058463
-1815.356678883633 3651.6917317422844 1111.1419784730642
-1494.841362628093 3231.704131471165 983.3475512921171
-1250.1516761940861 3052.802807437681 928.9112007617365
-1163.919249522564 3363.7275684584415 1023.5198313626654
-989.3430558968752 3201.090001155275 974.0322399714103
-1090.8899563387981 3639.254741301454 1107.357633249027
-770.306317498301 2937.043127180721 893.6876798303136
-758.3937200385622 3115.944451214205 948.1240303606943
-682.1054424915495 2915.9959125885466 887.2834032973277
-629.6893595624834 3215.4403747408483 978.3987921529916
-583.8406167279574 3304.412690971404 1005.4714156787959
-553.2460947669113 3311.109531978005 1007.5091400302006
-518.4072839690482 3291.9757005305737 1001.6870704547588
-513.737043463425 3474.703790853544 1057.2878349002278
-455.3883943849277 3294.8457752476884 1002.560380891075
-400.46947309596436 3114.9877596418332 947.8329268819223
-340.35183919236954 3115.944451214205 948.1240303606943
-324.9476752344123 3264.231644931798 993.2450695703682
-272.77205754026426 3035.582359134993 923.6713381438389
-274.5468268684584 3424.9558290902223 1042.1504540040792
-228.83949799158597 3247.9678882014814 988.2963104312427
-204.50605453740172 3366.597643175556 1024.3931417989818
-148.91302787004582 3604.8138446960775 1096.877908013232
-37.891007163602644 3123.5979837931773 950.4528581908711
-8.030468448070978 3344.59373701101 1017.6977617872236
24.12594682427145 3291.9757005305737 1001.6870704547588
55.22374698830665 3237.4442809053944 985.0941721647497
90.6114705976712 3382.861399905873 1029.3419009381073
128.43590855782813 3517.7549116102646 1070.3874914449718
167.23602014890042 3617.250835136908 1100.662253237269
204.2295075462268 3110.2043017799756 946.3774094880617
467.2775466392671 3501.4911548799478 1065.4387323058463
497.0767967586033 3473.7470992811723 1056.9967314214557
530.3893367077175 3472.7904077088006 1056.7056279426836
632.1866804291036 3676.5657126239453 1118.7106689211387
671.9593301427954 3701.439693505606 1126.279359369213
669.3665550876874 3502.4478464523195 1065.7298357846184
993.8525208269053 3595.2469289723617 1093.9668732255109
1120.727691475872 3797.108850742763 1155.3897072464217
1166.0240686233917 3829.6363642033966 1165.2872255246727
1142.4834488061465 3641.168124446197 1107.9398402065713
1182.7174421104849 3661.258647466 1114.053013260785
1367.9442163810013 3534.0186683405814 1075.3362505840973
-1712.5686033729758 3105.1509167019135 938.9216072203608
-1998.3845985396015 3650.753882953483 1103.8985850611764
-1762.4452868093033 3429.6411018936365 1037.0394940414774
-1604.234287720724 3344.450463303479 1011.2799308347536
-1259.946032792285 3078.349367482538 930.8174749755489
-1163.3742352647794 2906.053693929411 878.719481973186
-1213.9469239870054 3252.5594374084776 983.4943345668268
-965.9342590144782 2950.084810504099 892.0334135182343
-893.8263669584302 3079.3065656689446 931.1069082700064
-858.878998305109 3276.4893920686345 990.730166928266
-798.4878999786013 3159.7112133270703 955.4193050044424
-766.4734713036605 3278.403788441447 991.3090335171812
-710.7780768944003 3309.0341304064473 1000.5708989398235
-726.6094314388587 3539.7188933303564 1070.3243229040982
-681.3984530582422 3481.3298039595743 1052.6688919421863
-598.7155368993702 3390.3959762509794 1025.1727289687171
-544.1694593711718 3457.399849299418 1045.433059580747
-383.3421085080353 3225.7578881891027 975.3902023220148
-304.2358372628412 3387.524381691761 1024.3044290853443
-276.2339861397171 3447.827867435355 1042.5387266361713
-233.6926478753545 3318.60611227051 1003.4652318843991
-215.37352603455835 3547.3764788216063 1072.6397892597588
-183.3669688344787 3595.2363881419196 1087.1114539826372
-148.4387825583578 3595.2363881419196 1087.1114539826372
-98.81192552489 3130.0380695484764 946.4468728762577
-40.5602052180065 3345.4076614898854 1011.5693641292112
-7.447019081420513 3103.236520329101 938.3427406314457
97.86346329539205 3655.539873885514 1105.3457515334642
175.0362153685732 3130.0380695484764 946.4468728762577
261.66445792800727 3077.3921692961317 930.5280416810913
305.35135168225094 3223.8434918162898 974.8113357330997
352.34803646503735 3375.0808052684793 1020.5417962573958
396.38073310558923 3628.738324666139 1097.2416192886521
382.47823833644225 3353.0652469811353 1013.8848304848717
439.50789007245476 3552.1624697536377 1074.0869557320466
465.2348032659807 3488.030191264418 1054.6949250033892
496.666102627434 3472.715020281918 1050.0639922920682
618.6973991917405 3600.022379073951 1088.5586204549252
604.0937170198632 3162.582807886289 956.2876048878151
716.2793980928676 3571.306433481763 1079.875621621198
728.4430013101864 2936.6840358944114 887.9813473958283
941.0008967100276 3654.5826756991078 1105.0563182390067
1073.571852605509 3639.2675047166076 1100.4253855276854
1079.7459183803755 3443.041876503324 1041.0915601638835
1119.3630978113865 3466.9718311634806 1048.3273925253227
791.0615730938533 2257.0733235459656 682.4837083309528
1275.9103535562238 3376.9952016412917 1021.120662846311
1176.1209613497726 3040.0614400262875 919.240143197246
-1893.356539646942 3359.6182113496598 1009.4698975044844
-1482.865588967288 3624.901633397509 1089.1800347931794
-1423.5623465114147 3557.8625014720596 1069.0366787996463
-1255.2366595981073 3537.750761894425 1062.9936720015864
-1282.7608338737018 3711.094803015944 1115.0786353562933
-1309.7684250377508 3946.6894666396656 1185.868143562138
-1132.958046515524 3562.651010895306 1070.4754899420416
-1070.3591937676892 3466.8808224303784 1041.6992670941372
-1069.6686480398837 3572.2280297417988 1073.353112226832
-1032.1930224589892 3557.8625014720596 1069.0366787996463
-694.637563482208 2972.706649951352 893.2139571989508
-675.6195431515764 3147.0083929575203 945.5866827821367
-683.7752356428416 3332.80255857948 1001.4125551070712
-646.5510204850135 3305.029203924651 993.0674504811789
-620.493117550206 3334.7179623487787 1001.9880795640292
-536.9379715389967 3413.249516890019 1025.5845822993108
-442.5889892613042 2996.6491970675843 900.4080129109269
-314.94782004695236 3167.1201325351553 951.6296895801966
-284.80738311720626 3172.866343843051 953.3562629510709
-286.58700894062264 3578.931942934344 1075.3674478261853
-236.86067627170343 3365.364422657555 1011.1964708753586
-208.5740919962304 3437.1920640062513 1032.7786380112868
-100.44368209319093 3183.401064574193 956.5216474643404
-35.55836016823231 2934.3985745653813 881.7034680597891
25.647402930306583 3503.273494047051 1052.6342317763408
97.78658704771303 3654.590391821637 1098.1006638760298
202.15643041641277 3081.8846648013696 926.0188512455618
236.87379584355625 3146.0506910728714 945.2989205536577
283.1510572726399 3331.844856694831 1001.1247928785921
315.6868784315908 3334.7179623487787 1001.9880795640292
333.16175654408244 3192.978083420686 959.3992697491308
457.1545286121464 3696.7292747462047 1110.7622019291077
463.70274573601586 3478.37324504617 1045.1524138358857
728.4430013101864 2938.2293821039784 882.8545169737052
1183.9536244382723 3668.955920091376 1102.4170973032153
824.6095617746782 2354.03123246792 707.3195576014888
1326.0264582742811 2790.7432918679897 838.5391337879325
-1961.1834169726608 3586.5525772145074 1070.8359402242597
-1699.4832447463418 3310.590209531425 988.4419378773223
-1596.4289119647847 3331.6706681738824 994.7359241677134
-1470.1671532408925 3445.696785376267 1028.7806681930103
-1151.1120562369556 2878.440807361042 859.4152189243057
-907.9278658697779 3033.669639182776 905.7618452444581
-863.0314266655297 3025.0458151926796 903.1870326711162
-831.6272039159137 3294.3007642167986 983.5784030165656
-694.637563482208 2974.261073917668 888.0242475169923
-723.1144045234614 3369.998774796533 1006.179535604788
-645.2629461945133 3469.6518520154236 1035.932925341182
-401.45342757531563 3127.5735004082694 933.7986932652909
-365.32699718038805 3349.8765188196417 1000.1716396003238
-277.2309438909154 3463.9026360220264 1034.216383625621
-132.67012594473033 3216.6863483059315 960.4050898564894
-100.6854238070133 3192.731281666775 953.2528327083178
-73.54879673529464 3369.998774796533 1006.179535604788
-43.72842725649456 3610.507643853664 1077.9881973724314
51.8946558578059 3047.0844765007037 909.7671092474342
100.34912863701369 3752.3216383574704 1120.3295596896075
174.66152010631632 3126.615297742703 933.512602979364
250.14161271881176 3324.0050468493523 992.4472018802984
285.9996594584813 3367.1241667998343 1005.3212647470074
321.8519294750567 3401.6194627602194 1015.6205150403746
378.4293857325855 3628.7134944994227 1083.423912805042
345.35502936287946 3030.7950311860773 904.9035743866774
385.73893774346135 3120.8660817493055 931.7960612638028
550.7574827157531 3208.062524315835 957.8302772831477
550.2112064854938 3035.5860445139083 906.3340258163117
621.0975655921535 3255.014454928582 971.8487012935641
728.4430013101864 2939.765777957283 877.7249972236251
982.7450684919585 3560.6811052442185 1063.1115025042343
1334.8597264671264 3536.726038605062 1055.9592453560626
-1873.2315963307535 3376.5432583190163 1001.7183360108769
-1725.925240584543 3157.9595380189776 936.8711524190313
-1397.1220229826697 3495.422123745353 1036.9861025257403
-1238.0354755064266 3683.327427161176 1092.7319270169758
-1070.9271132551823 3275.8797029176826 971.8545014620006
-1049.0702816264534 3401.469472037442 1009.1131902801224
-897.160503235552 3095.644003722914 918.3840167459175
-788.8739616334393 3014.1544588742154 894.2085316349225
-851.5338760150512 3505.967829549302 1040.1146947165748
-699.6753820282454 3262.4578955308384 967.8726568554838
-735.4513525894126 3588.4160749256325 1064.574597299464
-695.0751335842943 3556.778957513785 1055.18882072696
-699.2576086349823 3761.940870426979 1116.0541597122888
-474.8677009794943 3021.8240630952696 896.4838714100749
-458.9968904291889 3110.983212165022 922.9346962962225
-411.7849496085039 3209.729366511092 952.2296959013106
-388.91592551601565 3277.7971039729464 972.4233364057887
-360.83355871392445 3310.3929219124257 982.0935304501868
-341.23315368256135 3435.023990504553 1019.0678017964145
-163.15559367540678 3203.9771633453015 950.5231910699462
-100.77607694969667 3197.2662596518794 948.5322687666878
-75.01266246502756 3438.85879261508 1020.2054716839907
24.476512747321017 3346.823541962432 992.901394382161
52.36790900871042 3076.4699931702794 912.6956673080363
84.64074869460066 3166.5878427676635 939.4309096660779
121.31028295385835 3329.5669324650607 987.7818798880679
157.10720538717118 3405.304274147969 1010.2508601676986
185.90237797402284 3329.5669324650607 987.7818798880679
249.99739731799374 3323.8147292992703 986.0753750567036
299.67294995052026 3529.935342740096 1047.2251315139263
311.96971530244224 3298.888515580845 978.680520787458
384.42509820788393 3688.1209297993346 1094.1540143764462
378.8751033478317 3326.6908308821653 986.9286274723858
525.7406861492046 3245.2012860334667 962.7531423613907
553.2250341616121 3224.1098744255683 956.4959579797214
615.0639419052118 3225.0685749532 956.7803754516156
664.8286131320291 3319.979927188743 984.9377051691274
734.0418859303577 3499.25692585588 1038.1237724133164
884.807024407805 3441.7348941979753 1021.0587240996729
875.6374924049717 3174.2574469887177 941.7062494412304
1121.239715474713 2601.913231992564 771.909018720477
-1725.925240584543 3159.5898759702745 931.3580491229703
-1779.1174355445173 3385.960006731958 998.0855839113798
-1692.4118816943376 3246.876663679229 957.0877341473147
-1519.3005955125873 3719.7600300585077 1096.4804233451362
-1291.0065074438885 3552.860018395233 1047.283003628258
-1235.5280168648399 3487.6347264808496 1028.056425807869
-1147.1645738685265 3414.735870811833 1006.5678976556692
-917.7245355138958 3273.7341368204457 965.0045603086514
-790.5054399061099 3134.650793767716 924.0067105445862
-848.0411201659329 3493.3898992968248 1029.7528885567267
-785.2716527896481 3365.8169018760454 992.1479642903773
-776.1620792977728 3467.491621624937 1022.1188061868663
-728.7707899423274 3557.6559957418785 1048.6967225856397
-447.53964909644185 3034.894464957483 894.6013562310497
-458.1651528872748 3323.612301225562 979.7072374654196
-382.7733516704863 3227.6927542926455 951.4328583177884
-361.98304297278725 3322.653105756233 979.4244936739433
-272.3228441927083 3406.1031115878704 1004.0232035323824
-228.50247369410204 3251.672641025875 958.5014531046962
-205.20343238748663 3386.919202201287 998.3683277028562
-167.06117341629025 3282.366896044408 967.5492544319382
-105.94330608264964 3362.939315468058 991.2997329159483
-78.0031310271962 3577.799100597791 1054.6343422066423
24.273184511952266 3320.7347148175745 978.8590060909906
90.40646727052714 3384.0416157932996 997.5200963284273
122.28830999754047 3358.143338121412 989.8860139585668
167.58986520607874 3634.3916332882122 1071.3162259037445
199.3914074152707 3573.0031232511456 1053.2206232492606
306.7112894124273 3244.9582727405705 956.522246564362
356.0552484199652 3127.9364254824122 922.027504004252
403.38557628315306 3267.0197685351413 963.0253537683172
518.9925410429236 3407.0623070571996 1004.3059473238587
556.3377068793061 3435.8381711370744 1012.788261068148
589.4157887008791 3436.7973666064036 1013.0710048596244
654.9224256553117 3435.8381711370744 1012.788261068148
715.7034564701717 3575.880709659133 1054.0688546236895
756.9681256553059 3610.411746554983 1064.2476311168368
1040.1222707508175 3648.7795653281496 1075.5573827758892
1086.042741419881 2880.463994395487 849.0796058033636
-1920.8384735831617 3518.214335226973 1030.3998696639205
-1723.4102677106 3308.0427751029397 968.8457039638664
-1675.3805880191144 3268.6955880477553 957.321864723217
-1392.4886885257174 3268.6955880477553 957.321864723217
-1246.1129854289463 2955.837466584582 865.6932892975656
-1312.6541575832393 3146.815276925599 921.626070002181
-1305.3918474079271 3197.6787138505933 936.5227402400936
-1313.2160588327677 3807.080269461376 1115.0017138452736
-1262.734954435215 3866.5808937887277 1132.4280073311336
-787.1175628638991 3010.53965346618 881.714236534566
-690.1618059855442 2959.6762165411856 866.8175662966534
-654.498652277674 3196.7190263614425 936.2416709903217
-630.626118502624 3230.308088481722 946.0790947323395
-603.0294973549388 3247.582463286437 951.1383412282344
-547.970994759021 3289.8087128090738 963.5053882181996
-499.87519592503963 3391.5355866590626 993.2987286940249
-463.5864432966192 3364.664336962839 985.4287897004107
-444.0094588072578 3464.4718358345262 1014.6599916766921
-421.3350652563094 3554.6824598147055 1041.080501155254
-313.9002161701709 3163.129964241163 926.4042472483039
-272.6001243177365 3043.1690280973085 891.2705910268118
-235.17555478428378 3348.349649647275 980.6506124542877
-211.42171821741047 3491.3430855307497 1022.5299306703064
-140.33709181702037 3407.850273974627 998.0769059401479
-36.73048627038357 3037.4109031624034 889.5841755281801
-7.4608013499240675 3117.064964761923 912.912923259251
22.618513355158292 3095.9518400006045 906.7293997642684
57.57369366866013 3385.7774617241575 991.6123131953933
95.65967752859349 3582.5133970000797 1049.2315093986404
167.6783264703733 3638.1752713708283 1065.5335258854127
199.3914074152707 3574.835897086873 1046.9829554004648
224.77181728711153 3433.7618361816994 1005.6657756839901
243.14716577913902 3236.066213416627 947.7655102309711
263.4550078733933 3106.5084023812637 909.8211615117597
282.8670478766695 2994.2249661506157 876.9360592884431
412.3865462765528 3341.631837223219 978.6831277058842
495.1602241464798 3471.189648258582 1016.6274764250957
601.6896360833143 3717.829332970348 1088.8622736164834
612.7752757216787 3574.835897086873 1046.9829554004648
678.6912462402337 3562.359959727912 1043.3290551534296
719.1591062063474 3594.9893343590406 1052.8854096456755
759.1803066813974 3622.820271544415 1061.0364178890616
852.5194725603232 3202.4771512963475 937.9280864889533
909.970272623218 3193.83996389399 935.3984632410059
-1937.614018623866 3447.0339422967622 1003.0239282559722
-1378.5852780018172 3109.051784166272 904.6772923935482
-1238.99500387927 2971.74653242576 864.7239715744385
-1288.7194648439538 3737.9674477329513 1087.6802653761838
-1249.9582533809028 3724.5249755345794 1083.7687514498375
-977.5356125025504 3611.2241384340173 1050.8002769277748
-752.2863886499393 2986.14918120973 868.9148793526667
-721.0445327125238 3093.6889587967044 900.2069907634381
-702.0885198627157 3139.7774349054075 913.6178956537686
-724.5536427468518 3383.662287647295 984.5839340317677
-705.781794950887 3448.954295467958 1003.582715959736
-548.9904512592884 3498.8834779190533 1018.1111962575941
-436.3653026114169 2962.1447665697806 861.9300330556196
-314.47163646659715 3170.503085644543 922.558498913989
-284.746471553795 3565.135662325314 1037.3893720374442
-176.6786635282158 3474.879063279104 1011.1263499605469
-99.96019866554622 3176.2641451581308 924.2348620252803
-73.27693595691568 3364.458755935336 978.9960569941301
-39.38807911585524 3258.8393315195576 948.2627332871225
-7.81914033101648 3268.441097375537 951.0566718059414
22.639547310541268 3100.41019489589 902.1627477266113
120.57676267109674 3314.5295734842402 964.467576696272
213.84104696627378 3268.441097375537 951.0566718059414
238.0996267505092 3170.503085644543 922.558498913989
289.33659344760986 3413.4277618008327 993.2451434401063
323.5686165836049 3109.051784166272 904.6772923935482
356.4919920549483 3134.9765519774173 912.2209263943591
452.2123142612798 3400.945466188059 989.6130233656418
517.0930750987912 3398.064936431265 988.774841809996
547.4847617949621 3384.6224642328934 984.8633278836496
586.94823725502 3425.9100574136064 996.8772635145708
625.0663295900544 3455.675531567144 1005.5384729229092
653.6425660853545 3432.6312935127926 998.833020477744
733.5576467737462 3668.8347335698963 1067.563908040688
761.9958098055139 3638.109082830761 1058.6233047804676
1035.16949280689 3520.007362802209 1024.2578609989957
1121.8354624669612 3485.4410057206815 1014.1996823312477
1066.4905601634264 3052.401365615991 888.193055132517
1327.8466730419877 2801.795276774917 815.2712597913446
-1195.6986146972415 3469.9138789368058 1003.115981709858
-1203.8783280822513 3589.0360608272163 1037.5529644706617
-695.7565028563739 2986.7005120748972 863.4240274462759
-636.8148099765659 3113.507996022754 900.0827510303571
-624.2561577096682 3200.9283069262005 925.3550528951404
-553.4059462823019 3325.814465359696 961.4583412734021
-539.1978114865515 3438.2120079498413 993.9513008138377
-412.5762099580546 3484.3238202945167 1007.2817457535036
-267.0312992055788 3345.0277205033103 967.0126933315962
-241.57901643647838 3443.015321735745 995.3398888283863
-209.0971253837941 3456.4646003362755 999.2279352691221
-179.6078483338784 3534.278283667915 1021.7230611048083
-77.08298685422123 3541.00292296818 1023.6670843251762
-39.979944771396966 3309.483198487623 956.7371420239372
23.256543335108514 3186.5183655684896 921.1892888514948
52.31895178620305 3079.8847995214282 890.3626349285174
90.91897558838727 3408.4314624772387 985.3420551236368
125.816193262251 3460.307251364998 1000.338805680761
201.37193951577137 3614.0132925139155 1044.773622146314
274.94666165950684 3663.007093130133 1058.937219894709
267.11749639804657 3152.895169067164 911.4691727496551
311.2444151796816 3297.9552454014547 953.4045307890207
308.87912101912383 2969.4085824456442 858.4251105939012
351.03269661765967 3088.5307643360547 892.8620933547047
442.1262688556781 3326.7751281168767 961.7360588763119
475.3100078066292 3335.421092931503 964.2355173024991
516.2163985091917 3394.0215211195277 981.1762910799913
586.9347276094076 3630.344559385988 1049.494821395779
588.7577749819833 3438.2120079498413 993.9513008138377
614.2983072409065 3397.864172148251 982.2871614916301
639.0598103291214 3443.975984492926 995.6176064312959
706.6653196978726 3712.961556503531 1073.3785352460136
727.9902110876853 3642.8331752293375 1053.1051502336052
929.3837009153599 3265.2927116573096 943.9621322900906
1035.6264105770674 2965.565931416921 857.3142401822623
1202.1772952395781 3272.0173509575748 945.9061555104586
1093.6374459053345 2905.044177714535 839.8180311989508
1139.8685073584816 2889.673573599643 835.3745495523956
-1723.6106228115623 3608.1420930776185 1036.2560668876488
-1507.1624101687562 3402.456848560141 977.1833981838778
-1528.1933882171195 3519.7166608551515 1010.8603401551866
-1520.0449042685314 3573.5408369905663 1026.3186086010332
-1578.0673038100426 3788.837541532225 1088.1516823844197
-1283.306705412951 3292.8862042844758 945.7147802762613
-1352.4842870046143 3552.3956249373678 1020.2457174258791
-1252.6666813588918 3454.3587326907195 992.0895856138013
-1226.1538396563076 3560.0847929567126 1022.4540414895715
-1167.4102329501723 3435.1358126423575 986.5687754545704
-1148.77576006778 3426.485498620594 984.0844108829165
-1024.535179698447 3233.295152134552 928.6002687826455
-1049.0702816264534 3410.146016579486 979.3917222475701
-1036.6895878456244 3474.5427987415 997.8864362809938
-869.6043624426148 3455.3198786931375 992.3656261217628
-854.5609310842871 3527.405828874497 1013.0686642188789
-798.4915001129785 3574.5019829929847 1026.5946491089946
-679.1502316019049 3484.1542587656813 1000.6468413606093
-464.796234807493 3158.325763945939 907.0691091616447
-415.9667561457468 3250.5957801780783 933.5689979259532
-403.8173546597998 3412.0683085843225 979.9438032634932
-367.31246999115103 3378.4281984996883 970.2823854848391
-314.9816636708251 3521.638952859988 1011.4124211711096
-291.8018648699677 3657.160539200943 1050.3341327936878
-206.54007326681608 3415.912892593995 981.0479652953394
-158.07834001225828 3112.1907558298694 893.8191647794904
-142.4316752769759 3463.970192714901 994.8499906934168
-72.0012815352913 3309.225686325584 950.4074689116077
-7.773199436004632 3252.5180721829147 934.1210789418764
26.635998833306374 3651.393663186434 1048.6778897459185
59.02609126971193 3476.4650907463365 998.4385172969169
108.42128369961885 2983.3971915058414 856.8297367126431
154.89567377980674 3365.9333004682526 966.693858881339
182.5301206137109 3277.5078682457856 941.2981321488766
222.6359196382122 3406.3014325698136 978.2875602157239
246.6083353987709 3287.119328269967 944.058537228492
285.0229958519071 3365.9333004682526 966.693858881339
319.9480166528099 3391.884242533542 974.1469525963007
384.989514237595 3389.0008045262875 973.3188310724161
415.2289578534159 3369.777884477925 967.7980209131852
475.44852013241274 3579.307713005075 1027.9748516488025
516.7901150547308 3628.326159128399 1042.0529175548413
561.0730173437012 3690.800649285577 1059.995550572342
548.4166507512087 3393.806534538378 974.6990336122238
619.8559961953054 3430.3300826302666 985.1885729147626
902.3482706390104 3279.430160250622 941.8502131647997
1060.1458576310592 3205.421918064427 920.5950940517605
1059.476763559105 3116.99648584196 895.1993673192982
-1747.9450295800793 3660.9113996236347 1044.4983121603016
-1557.679572661601 3384.924645830101 965.7562539543634
-1587.7090717785777 3516.66745164792 1003.3439263383826
-1401.4830370716852 3296.455024404996 940.5148973169198
-1493.0517198294147 3664.7579049029873 1045.595762448886
-1304.6576926308549 3349.344471996091 955.6048387849568
-1313.9778653396722 3536.86160436452 1009.1055403534514
-962.7318500189494 3332.0351982390057 950.6663124863265
-897.0179430151226 3437.8140934211965 980.8461954224003
-850.9786222734684 3383.001393190425 965.2075288100712
-730.9274120218666 3418.581567024434 975.3589439794778
-652.5337809108842 3193.5610081823197 911.1581020972843
-629.6893595624834 3232.0260609758434 922.1326049831293
-650.2525519645898 3508.9744410892154 1001.1490257612137
-602.2652337584574 3426.274577583139 977.5538445566468
-540.7043714515879 3451.27686189893 984.6872714324461
-441.88175214199885 3004.120623174215 857.1086753844976
-403.9311060273096 3414.735061745082 974.2614936908933
-364.07301435253777 3350.3060983159294 955.8792013571028
-303.72003759525796 3397.425787987996 969.3229673922631
-287.35389951846753 3603.213820433349 1028.036557831534
-218.45914962908103 3116.630902595272 889.2090963255943
-206.36572880429483 3414.735061745082 974.2614936908933
-160.3240483632663 3157.98083434831 901.0066869278777
-140.13948960381703 3409.9269301458917 972.8896808301627
-106.30591865338319 3383.001393190425 965.2075288100712
-72.58682782718445 3337.804956158034 952.3124879192032
-8.27165814688318 3462.816377736987 987.9796222981996
53.657115868071 3161.8273396276627 902.1041372164622
84.48699619924263 3170.4819765062052 904.5734003657773
108.42128369961885 2984.8880967774526 851.621423941575
179.1782908286685 3895.5482216641303 1111.4427797639564
177.44497062593888 3187.791250263291 909.5119266644076
206.7423283096378 3164.7122185871767 902.9272249329006
246.6083353987709 3288.762013846291 938.3199967397509
276.7213551960263 3269.5294874495294 932.8327452968283
309.5218273881249 3282.9922559272627 936.6738213068741
354.34660729013683 3409.9269301458917 972.8896808301627
390.2304378573921 3436.8524671013583 980.5718328502542
409.5441346996897 3325.303814000139 948.7457744813036
464.21343157933745 3496.47329893132 997.582312323314
508.98692656251364 3575.3266571580443 1020.0800432392964
635.6412524533064 3715.724099854406 1060.1369787726308
674.1203192046718 3545.516241243063 1011.5748035027665
731.445860823861 3663.796278583149 1045.3213998767399
780.497687478279 3732.071747291654 1064.8011424991148
1182.566600999081 3389.7327774292917 967.128066815094
1193.7062867000157 3252.220213692444 927.8942189981981
1113.5283386053325 2960.8474387815004 844.7623596379219
-1611.4971618770658 3004.6498800138384 851.5915091948879
-1656.8046363764302 3602.116282667887 1020.9281493517965
-1631.9929999495962 3616.54783828755 1025.0184063604174
-1563.7874385734015 3533.806919401482 1001.5675995109905
-1397.493910192268 3674.2740607662017 1041.3794343949014
-1285.1394278830649 3638.676223571033 1031.2901337736362
-1178.8158269481942 3426.051304107998 971.0270138466205
-1026.971648615685 3244.213703300244 919.4897755379961
-975.7418064733079 3174.942236325862 899.8565418966155
-1056.47702396218 3544.3900601892346 1004.5671213173125
-986.9043380280833 3417.3923707362 968.572859641448
-982.5272349158439 3515.5269489499087 996.3866073000706
-986.8925074906099 3653.107779190696 1035.3803907822573
-754.7496426823744 2894.007953596422 820.2328721287937
-725.920081137771 2887.273227640579 818.3240855247706
-613.3897540040377 3149.9275399184457 892.7667630816725
-629.5813280599878 3399.1124002846273 963.391867430528
-565.2469665136912 3217.2747994768733 911.8546291219037
-529.555827710318 3381.7945335410313 958.4835590201828
-338.0690642391338 2859.3722201092305 810.4162553081034
-329.9952211861778 3333.689348142155 944.8493689914462
-289.62151334798307 3241.3273921763116 918.671724136272
-262.9667791430011 3299.0536146549634 935.0327521707559
-237.26510542868414 3386.605052080919 959.8469780230565
-143.10352280186729 3483.7775265866503 987.3880418811044
-98.53996609683983 3137.420191714738 889.2218736742009
-68.38344194609427 3146.079125086536 891.6760278793735
-37.159879000874625 3080.6560729440635 873.1335294402917
-7.653753108973828 3205.729554981143 908.5824235150069
25.100520090349253 3444.3312745595713 976.2080060575404
57.10044051775561 3366.400874213391 954.1206182109871
90.22708935927609 3387.567155788897 960.1196618236312
122.00887369934557 3360.6282519655256 952.4845154075388
161.04373164827993 3503.019600746201 992.841717892599
168.5593401209899 3029.664576421254 858.681288009831
208.62694388219603 3195.14641419339 905.5829017086849
263.12945333786854 3110.481287891367 881.5867272581085
317.22814119245726 3366.400874213391 954.1206182109871
358.14389185782585 3448.1796893914816 977.2987412598393
383.2425396976626 3376.9840150011437 957.1201400173092
470.5970046208575 3546.31426760519 1005.112488918462
463.67367409016504 3258.645258919907 923.5800325466172
584.7603200448318 3622.320460535415 1026.654509163866
609.3207036974759 3563.6321343487853 1010.0207973288071
722.0236345373607 3799.347542803281 1076.8283284696165
812.8759734056181 3888.823187645192 1102.1879219230666
1073.198016741184 3160.510680706199 895.7662848879945
-1512.2714352879723 3419.077643437663 962.6069125789394
-1520.0449042685314 3578.8656188911123 1007.5936095068965
-1377.367655921366 3623.144214498695 1020.0598026315112
-1386.5002978203556 3735.765859848415 1051.7672938397702
-1272.829782256615 3701.113045894655 1042.0111426987673
-1140.8765704965467 3605.8178075218148 1015.1817270610098
-1012.1103647145857 3294.905060103356 927.6473709903462
-1025.8025945945055 3553.8385865911746 1000.5475003495056
-962.4606150217878 3564.426946410379 1003.5285465314787
-606.5557909280034 2971.4787965349283 836.589960340987
-629.8767113505115 3236.1877920150405 911.1161148903137
-589.308081487229 3183.245992919018 896.2108839804483
-601.9271673909253 3427.740846926103 965.04595036419
-529.1038597208071 3380.574516822374 951.7667446444918
-392.6697206438391 3322.8198268994406 935.5064927428206
-377.76232688990353 3479.7200678567433 979.6801770756942
-327.42382985225953 3309.3437325840896 931.7124339657639
-268.3350131879151 3368.061000672405 948.2436900657964
-222.7730606368753 3181.3208365882533 895.6688755837259
-158.76181646691288 3130.304193822996 881.305653070583
-139.86284650533233 3406.564127287694 959.0838580002439
-98.23778895456189 3129.341615657613 881.0346488722219
-77.91948155692575 3586.56624421417 1009.7616430937861
-42.196539677445394 3499.93420932977 985.3712652412792
-8.028171403320387 3364.2106880108763 947.1596732723517
59.12400571472666 3487.420693179801 981.8482106625837
92.66150386911173 3480.6826460221255 979.9511812740554
176.80263589064137 3179.395680257489 895.1268671870035
244.44510438650096 3263.1399806457425 918.7042324444269
290.63881158970884 3437.3666285799254 967.7559923478019
337.08323205303117 3578.8656188911123 1007.5936095068965
408.2461128004446 3599.079760364139 1013.2846976724815
565.7486258215653 3727.102656359975 1049.3282560545194
1145.5526920693783 2909.8737939504663 819.245691645871
-1622.4415644617295 3598.916693797942 1006.4629308138917
-1525.0439980860126 3449.6439917538746 964.7177463675034
-1520.0449042685314 3580.6187496764114 1001.3457791720764
-1382.1247705672154 3637.438681422218 1017.2358816387662
-1165.5744247920784 3390.8979606268545 948.28899635957
-1138.937409882743 3499.722575665433 978.7225824398402
-1021.4895935519 3230.068662295504 903.3119266657193
-1045.5221296029142 3405.3437059859575 952.3288529188978
-892.4420463002997 2997.010637168637 838.1355741752291
-978.2911526455183 3390.8979606268545 948.28899635957
-895.0106301356482 3435.198246394771 960.6778898081755
-727.2265137331484 3406.3067556765645 952.5981766895197
-717.9639974249836 3518.9835694775707 984.1090578522774
-687.58106206317 3534.3923645272807 988.4182381822271
-547.0118856666774 3295.5560412567725 921.6259430680058
-490.3852686193699 3134.726742925422 876.6488733741551
-492.8028247319859 3355.2651220743996 938.3240168465611
-469.80109327806275 3421.7155507262746 956.9073570194695
-434.29290832366405 3400.5284575329233 950.9822340657886
-395.1722507290548 3345.634625168331 935.6307791403425
-379.01630971775387 3492.9812278311847 976.8373160454871
-343.8045450164796 3476.6093830908676 972.2588119449155
-268.94852565019096 3377.415264958358 944.5184635708639
-166.768254935724 3289.7777431131312 920.0100004442746
-145.35618803238552 3542.096762052136 990.572828347202
-106.60809579566113 3397.6393084611027 950.1742627539229
-79.80159463801091 3674.9976193558864 1027.7395086930187
-41.30293858966671 3427.4938488699163 958.5232996432006
52.33527086037218 3088.5003577762914 863.7213323843058
87.35704277925936 3283.036395278883 918.1247340499216
111.46015344248833 3073.0915627265813 859.412152054356
215.41155994340565 3302.2973890910207 923.5112094623588
258.9387521687094 3458.3114389693365 967.1416603031001
330.91818100956533 3515.131370715143 983.0317627697899
349.3501802273882 3366.821718361682 941.5559020940234
385.0987001463408 3396.6762587704957 949.9049389833011
404.0961791773688 3285.9255443507036 918.9327053617872
445.19038391560775 3358.1542711462203 939.1319881584267
512.7096921507936 3379.3413643395716 945.0571111121076
535.3702053637544 3319.632283521945 928.3590373335522
567.3723291178711 3321.5583829031584 928.897684874796
685.2733811714429 3609.510240394618 1009.4254922907322
721.4628726971312 3619.140737300687 1012.1187299969508
825.6946165163214 3112.5766000414637 870.4544266498523
876.4084346293345 2655.1279970031915 742.5256356044687
1175.1860434892994 3373.5630661959303 943.4411684883764
-1600.9162705722795 2900.1900294676884 805.6039926516058
-1547.5015527265962 3369.4234329064807 935.9459010972311
-1280.310075627982 3293.3054886114815 914.8021418216573
-1113.6019213293246 3241.2755013718615 900.3494456079741
-1032.7582622941243 3267.2904949916715 907.5757937148156
-974.854768467423 3176.7197764634448 882.4173966021077
-974.9570163683965 3380.9856522930627 939.1576113669385
-890.745090266765 3420.489901863885 950.1309547884388
-781.2434710426508 3363.6423232131897 934.3400459623773
-746.9646379396461 3500.461919287745 972.3452841539149
-726.0199700288217 3560.200052785086 988.9391205474031
-673.3423261730335 3462.884706281353 961.9072257773659
-693.198801628461 3748.0861178170458 1041.1294124301482
-589.2496786084711 3358.8247318021135 933.0018333499993
-545.09366748199 3285.59734235376 912.6610016418524
-511.7784201228877 3273.0716046849625 909.1816488496694
-465.22057707907624 3169.011630205723 880.2762564223028
-339.51889279328253 3434.942676097113 954.1455926255729
-253.15057974658694 3180.5738495923056 883.4879666920102
-226.21070847121135 3233.5673551141404 898.2083054281691
-188.05956023956577 3117.945161248319 866.0912027310951
-173.40774049522588 3422.4169384283155 950.6662398333899
-139.19099898044092 3393.51138996186 942.6369641591215
-74.53167801097246 3433.9791578148975 953.8779501030973
26.32048950256176 3617.0476314357816 1004.7300293734645
94.86528963591029 3566.9446807605923 990.8126182047324
120.05281961198132 3311.6123359735698 919.8873497486941
256.27076725357654 3424.3439749927456 951.2015248783412
329.1049307026636 3497.5713644410994 971.542356586488
412.06761960654666 3636.317997080085 1010.0828798229768
420.93280635783157 3176.7197764634448 882.4173966021077
497.8061901276015 3282.7067875071143 911.8580740744255
518.7515189773541 3218.1510625986975 893.9260250685593
682.8747839765023 3427.234529839391 952.004452445768
789.6717844575508 3087.1125762174333 857.5266420118754
856.3316823942308 3119.872197812749 866.6264877760464
-1380.9557257684933 2952.6828044821686 814.6368860512724
-1264.8700599907397 2921.835318441219 806.1261513618697
-1200.992887911577 3693.986453403745 1019.160479055983
-865.1577350729997 2820.617004869352 778.2003031622668
-884.2213234084733 3397.0794002596026 937.2446576704813
-870.8138260899619 3470.3421796068583 957.4576525578129
-751.2558958150039 3236.0940824833956 892.8292610101605
-757.2679539925989 3399.9713520759415 938.0425390476128
-731.5442284033197 3429.854854178112 946.2873132779717
-668.0562647085234 3277.545391850922 904.2655607490456
-609.4447047736084 3296.8250706265158 909.5847699299222
-598.039404164306 3410.575175402518 940.968104097095
-443.86201607605386 3024.981599890645 834.5839204795602
-494.9241463945367 3608.191882852353 995.4899982010816
-401.20107320707433 3399.9713520759415 938.0425390476128
-378.3893183038287 3490.5858423212317 963.0428221977335
-331.0428250629593 3350.8081711981777 924.4785556363771
-290.82504590567726 3261.157664891667 899.7442329453003
-248.47254722173332 3123.3079616461728 861.7118873020316
-217.7176961746164 3113.6681222583757 859.0522827115932
-205.0290879249654 3400.9353360147215 938.3084995066566
-175.8975475800391 3473.2341314231976 958.2555339349444
-145.07954493390082 3538.785039260216 976.3408451499254
-106.06417693956082 3383.583625116687 933.5212112438676
52.02520845115887 3073.1807968296293 847.8819434317521
84.43574536745662 3176.327078279055 876.3397125494427
118.55084950918376 3271.761488218244 902.6697979947825
150.47261056507782 3279.4733597284812 904.7974816671332
183.70773429508967 3308.3928778918716 912.7762954384483
227.15899701235193 3485.7659226273336 961.7130199025142
264.20261429856623 3532.037151688758 974.4791219366184
335.2699817461295 3564.8126056072674 983.5217775441089
557.5663109853031 3678.56271038327 1014.9051117112816
505.2391291117763 3135.8397528503087 865.1693732696015
