# .PCD v.7 - Point Cloud Data file format
VERSION .7
FIELDS x y z
SIZE 4 4 4
TYPE F F F
WIDTH 851
HEIGHT 1
VIEWPOINT 0 0 0 1 0 0 0
POINTS 851
DATA ascii
-1569.0764158168809 2892.4279407443446 1129.108324121929
-1563.9594656382735 2929.6894923159302 1143.654003015609
-1580.7912318302335 3114.13417259528 1215.6551135393263
-1570.089986199427 3102.0241683345143 1210.9277678988801
-1246.1076446202594 2590.6093730145 1011.2883250831189
-1376.7693552089672 2907.332561372979 1134.9265956794009
-1547.3547783064193 3288.331926192443 1283.6561623672815
-1353.6672546144443 2913.853332898006 1137.472089485795
-1430.1292582202027 3247.3442194636987 1267.655915584233
-1234.4756573936613 2822.5625315476213 1101.8351761962783
-1271.7485918583686 3034.95337550566 1184.7455458902557
-1307.9618284905928 3156.053418113314 1232.0190022947165
-1107.4789825405107 2764.807126611663 1079.289373911074
-1113.509786318131 2845.8510012798624 1110.9262255048286
-1255.0380507168002 3220.3295945742993 1257.110298386315
-1198.2416461376624 3401.9796584857795 1328.0204829930062
-1093.596995592604 3190.5203533170306 1245.4737552713707
-1142.3632199630213 3363.7865681249045 1313.111162126984
-900.876622212946 2690.284023468492 1050.1980161237136
-1078.8607360690094 3237.097292781513 1263.655853888471
-1109.268379420676 3344.2242535498217 1305.4746807078018
-1017.7444753782175 3128.1072544346243 1221.1097431244564
-1036.0020078583357 3199.835741209927 1249.110174994791
-906.7149808234143 2871.0025485906826 1120.7445587580628
-1072.5035252838056 3413.1581239572556 1332.3841866611103
-1068.3847077063404 3601.3289593937634 1405.8398650741954
-833.206806330875 2902.6748674265305 1133.108385817691
-969.8381745765187 3416.884279114414 1333.8387545504784
-770.7490007041291 2794.616367868932 1090.9259170260182
-752.2266981920629 2809.520988497566 1096.7441885834903
-759.5942796119988 2854.234850383469 1114.1990032559065
-734.9714710266567 2959.498733573199 1155.2905461305534
-784.1859465635408 3178.410349056265 1240.7464096309247
-766.934040049686 3258.5226849351748 1272.0196192523372
-689.8471777525705 3035.88491429495 1185.1091878625978
-119.25873345104681 645.5563809777233 252.0038868330102
-81.16139148730794 455.5224679626359 177.82092447524096
-146.35527627267132 829.0695224677831 323.6413553843854
-110.53542864671476 656.734846449199 256.3675905011143
-71.87529918050751 453.6593903840566 177.09364053055697
-92.29621617052116 621.3363724561925 242.54919555211805
-50.943293344189065 422.91861033749836 165.09345544327076
-60.84672056382532 550.5394244701796 214.9124056541256
-59.42757915134344 545.8817305237313 213.09419579241555
-47.59566298362795 473.2217049591391 184.73012194973907
-47.54814011427627 480.6740152734563 187.63925772847514
-49.9771419673797 551.4709632594693 215.2760476264676
-36.945722902359094 522.5932607914903 204.0031464838654
-31.5072451585896 518.8671056343317 202.54857859449737
-32.680087629801925 553.3340408380485 216.00333157115162
-32.39167952547003 707.9694798601294 276.36789897992463
-21.491135429126537 527.2509547379385 205.82135634557542
-17.572860682354392 571.0332778345518 222.91252904564973
-16.812033529559695 577.5540493595793 225.45802285204377
-11.365070489084774 546.813269313021 213.45783776475756
-10.205211861810396 533.771726262966 208.3668501519695
71.25706160095292 3417.8158179037036 1334.2023965228202
143.25677030773392 3658.152825540432 1428.0220253870577
140.67399948532713 3445.7619815823928 1345.1116556930804
182.36320375521976 3589.218955132998 1401.1125194337494
228.8310213396369 3311.620395924684 1292.7472116758315
285.04688087136014 3201.6988187885063 1249.8374589394748
265.9454040015375 2932.484108683799 1144.744928932635
385.1886972989614 3765.2797863087408 1469.8408522063885
380.2158042770958 3490.475843468296 1362.5664703654968
387.76912402396596 3262.248840092333 1273.4741871417052
392.60691414108356 3257.591146145885 1271.6559772799953
473.783906714673 3632.069739440322 1417.8400501614817
490.6982088880818 3496.0650762040336 1364.7483221995487
523.814262285721 3339.5665596033737 1303.6564708460917
540.186445818927 3373.1019560178006 1316.747581850404
456.57894271527925 2765.738665400953 1079.653015883416
794.9437755498269 3627.4120454938734 1416.0218402997716
893.8130882865344 3078.7356986022733 1201.83671859033
1190.1986886489603 3065.694155552218 1196.745730977542
1274.986156754004 3232.4395988350643 1261.8376440267612
1300.428243145292 3102.955707123804 1211.2914098712222
-1512.5036984439832 2624.996479071021 1019.4358659890005
-1817.6692950409638 3193.621426597059 1240.265368209629
-1620.51992277763 2854.3108021716853 1108.4916980320736
-1768.366025189081 3146.080652295702 1221.802573761675
-1587.7196618626758 3175.9101577396905 1233.3870722388226
-1597.8494482649062 3313.871620418139 1286.9653776956309
-1554.5819144205125 3274.720394522904 1271.7607234443744
-1174.0922675979357 2613.810414529525 1015.0916790600701
-1419.4432971483552 3247.687405214289 1261.2622716994595
-1473.6088214375561 3531.9998789773076 1371.6770228097737
-1438.088607659587 3511.4920939845656 1363.7126801067348
-1254.7179229196163 3171.249297514067 1231.5769943517682
-1272.827135034163 3268.195190207031 1269.2266144024984
-1156.0241552986154 2980.1540282635137 1157.3638009825406
-1031.7173772524159 2782.5335546970873 1080.616498571437
-1198.2416461376624 3404.2923087952304 1322.080888704485
-1092.2831054799597 3117.1833188968376 1210.580090861938
-1162.818592638525 3333.447233365757 1294.5677048212592
-1154.6138352347182 3466.747835818582 1346.335932391013
-1131.3996803415384 3479.7982444503273 1351.4041504747652
-1126.4825325621205 3481.6625885405765 1352.1281816295868
-1090.8822676486764 3456.4939433222107 1342.3537610394935
-1015.7170395018575 3234.636996582544 1256.1940536157074
-1080.996397587233 3550.643319879801 1378.917334357991
-1048.2108629927957 3535.7285671578065 1373.1250851194172
-1025.5128062303602 3477.933900360078 1350.6801193199435
-836.5194931097949 2899.9872323827935 1126.230461325206
-828.0158577087567 2902.7837485181676 1127.3165080574388
-950.9684975757017 3430.3931260587206 1332.2173248719894
-788.4762277203241 2860.8360064875583 1111.0258070739499
-927.5633589443906 3466.747835818582 1346.335932391013
-784.6331249908538 2950.3245228195246 1145.779302505393
-908.422878241562 3522.6781585260615 1368.0568670356652
-791.0786797619908 3317.6003085986376 1288.4134400052744
-772.8155209022497 3379.1236635768646 1312.3064681143917
-736.2038920599693 3242.0943729435407 1259.0901782349943
-82.50162678008972 521.0841732246806 202.36670777267446
-69.39607852911827 462.35733438182757 179.55972639578985
-92.98809185395835 626.4196143237664 243.2744680201024
-70.17980780983166 500.5763882319383 194.40236506963538
-63.541996987172254 458.62864620132893 178.1116640861464
-64.96220809163778 547.1849904881709 212.50314394017872
-58.37578774905069 528.5415495856779 205.26283239196138
-88.68911112241784 840.8191847024365 326.5380508246017
-54.36705943299031 549.9815066235449 213.58919067241132
-49.9771419673797 551.8458507137942 214.31322182723306
-38.95119425014274 438.12086120858663 170.14732138310734
-41.3604032742803 523.8806893600546 203.45275450490706
-70.35928036385084 930.3077010344031 361.2915462560449
-36.221296963097146 512.6946248185587 199.10856757597665
-41.73640414786894 604.9796572858994 234.94810973965247
-37.390106014053366 616.1657218273951 239.29229666858285
-31.689781944050353 536.9310979917998 208.5209725886592
-20.322289606844343 520.152001179556 202.0046921952636
-13.760151920930031 447.44258165983314 173.76747715721598
-12.817166377809405 617.0978938725199 239.65431224599374
-10.686085719173189 559.3032270747914 217.20934644652
-9.971852260886958 632.0126465945143 245.44656148456758
-0.6882284169861711 860.3947976500541 334.14037795022995
67.65677064565405 3529.203362841934 1370.5909760775412
68.84880985973783 3304.5498999668926 1283.3452219215224
102.7567515917569 3334.3794054108816 1294.92972039867
126.98671185159708 3244.890889078915 1260.1762249672267
139.98945447566615 3431.3252981038454 1332.5793404494002
227.1102780626857 2815.15957627645 1093.2870437808174
257.09785589212004 2889.733339886422 1122.2482899736867
264.84715423914236 2922.3593614657852 1134.918835183067
291.55986271170514 2947.5280066841506 1144.6932557731604
405.08501773227187 3899.2756647564206 1514.3111603096552
422.32670867394523 3879.700051808803 1506.708833184027
366.5285515828177 3316.6681365535132 1288.0514244278636
440.36487899580595 3707.2482234607423 1439.7359513630167
471.7383872043668 3665.300481430133 1423.4452503795276
444.7420104066948 3411.7496851562278 1324.9770133237719
500.55959601367874 3611.234502812903 1402.4483468896974
468.2095086672585 3338.10809359138 1296.3777827083136
516.7766451151965 3479.7982444503273 1351.4041504747652
517.1927521612773 3444.3757067355905 1337.6475585331523
526.6580707150573 3325.057684959635 1291.3095646245613
542.2749877248826 3388.445384028111 1315.9266238885002
600.3771337929054 3370.734115170743 1309.0483279176938
664.4410548748677 3359.548050629247 1304.7041409887634
736.4132795872085 3519.8816423906874 1366.9708203034324
788.615255508213 3600.980610316532 1398.4661755381778
794.9567621408736 3355.8193624487485 1303.25607867912
1150.5182019821968 3700.72301914487 1437.2018423211407
1239.7510054015256 2982.018372353763 1158.0878321373625
-1775.7557298605097 3122.0898383123213 1206.21890281447
-1628.4686240852336 2899.1500500372554 1120.0861517619878
-1605.0221484291772 2864.6363589653834 1106.7517928124403
-1433.8979542610878 2598.787657465828 1004.0411900929531
-1488.3188001517576 2725.648792216493 1053.053968934533
-1673.553307431706 3081.0465300106353 1190.3618273069003
-1599.189694895964 2959.782210028382 1143.5113769436252
-1559.2153485158963 2916.8732968038926 1126.9335252766202
-1851.2506021122726 3491.4796130274926 1348.9325823826
-1663.2361725957473 3171.528368766624 1225.3194710394976
-1563.5444980615134 3075.4497152422236 1188.1994988285953
-1533.3664571895608 3252.682182908594 1256.67323397492
-1259.7200286579396 3149.141109692978 1216.6701571262777
-1267.9953612573902 3206.974862299898 1239.0142180687626
-1236.6940686726664 3255.4805902927997 1257.7543982140726
-1179.062472900147 3168.7299613824184 1224.238306800345
-1074.2527097813954 3123.955443235125 1206.9396789739053
-1151.7093030956269 3364.618478276828 1299.91980354102
-1048.11130562171 3134.2162703105464 1210.9039478507977
-1084.4490794500862 3258.2789976770055 1258.835562453225
-1124.6729220680447 3478.4203785678656 1343.8871492665548
-937.8998568673086 2973.7742469494115 1148.917198139388
-876.6895631479879 2866.501963888187 1107.4725689718755
-986.7746060411682 3243.3541582945745 1253.0693531777451
-951.0250092621405 3227.496516450741 1246.9427558225477
-955.9234098119368 3279.7334542892504 1267.1244882867277
-835.3459765653573 2914.0748894196868 1125.8523610374677
-812.45786858098 2932.7309386477255 1133.0601226318179
-999.1446130495373 3736.806660376205 1443.7146473483022
-977.7545165762805 3678.972907769284 1421.3705864058172
-750.0860461724583 2928.9997288021177 1131.618570312948
-721.5536726887448 2909.4108771126766 1124.0504206388803
-799.890712944894 3499.87483518011 1352.1760751000575
-107.71090557146036 610.9856122182762 236.05419221496206
-86.92926327991565 549.4206497657476 212.2685789536071
-79.88943717767445 532.6302054605125 205.78159351869212
-63.541996987172254 458.9388110097586 177.31093522100966
-61.27629605763452 476.6620577763956 184.15830873564215
-51.16771313865686 425.35792239928844 164.3369643511797
-65.07287624852303 548.4878473043457 211.9081908738896
-59.714209690386944 541.02542761313 209.0250862361496
-48.88070503574665 449.61078639573907 173.70705442383468
-53.445583849380306 541.02542761313 209.0250862361496
-41.76894021717435 470.13244054658196 181.63559217761966
-35.917938680207044 445.87957655013133 172.26550210496467
-41.3604032742803 524.2349833078949 202.5381008012346
-69.09027530718821 914.1464121739093 353.18031812314933
-35.91939080018743 592.3295629902372 228.84643062061207
-26.991246935287943 532.6302054605125 205.78159351869212
-17.68752861502881 575.5391186850021 222.35944518569707
-12.128707291261568 635.2384762147268 245.42428228761702
0.7445228879872058 861.9094743354003 332.9985856589694
35.449608643968304 3269.472627213829 1263.160219409835
63.01050536095514 3289.0614789032697 1270.7283690839026
68.75170293468884 3302.1207133628973 1275.7738021999476
93.35051752192986 3204.1764549156924 1237.9330538296101
104.13565124968373 3381.4089225820626 1306.406788975935
121.61654548177623 3564.2382050168444 1377.0428526005649
143.32973021112466 3664.980870848255 1415.9647652100548
141.0162719901576 3458.8315268784245 1336.3189995924874
170.38866688782537 3358.088861047014 1297.3970869829975
242.47720320292888 3513.8668721011395 1357.58189629582
370.1700704571245 3402.8633791943075 1314.6957148094375
433.5915327746149 3926.1655600408008 1516.8734275309546
398.62045873394555 3358.088861047014 1297.3970869829975
408.21239342778944 3391.6697496574843 1310.3710578528276
441.3396125128731 3387.9385398118766 1308.9295055339576
517.2276878788736 3734.008252991999 1442.6334831091497
489.65222283129935 3493.3452179502965 1349.653358542035
522.4524668268823 3520.396489330953 1360.1046128538424
504.81960284439776 3222.8325041437315 1245.14081542396
532.5781860186605 3330.1047872049558 1286.5854445914724
671.0800039882375 3209.7732696841044 1240.095382307915
866.5516324101314 3022.2799749423125 1167.6573782846979
1235.1722221607408 3017.615962635303 1165.8554378861102
1265.3291475961107 3034.406406940538 1172.3424233210253
-1764.3979777226673 3058.8502286312582 1175.654829787425
-1674.0599841823664 3084.05283960869 1185.3413358613525
-1568.1906847081846 2935.6374638527027 1128.298577870446
-1415.1023942903034 2722.8154155988345 1046.5014154683913
-1633.6370526758226 3169.9284029391983 1218.34720840955
-1432.7918893497285 2921.636013309685 1122.917185607153
-1516.213689139021 3239.0022256180855 1244.8954102417958
-1330.2188189406945 3047.649068196844 1171.3497159767905
-1307.4572538023838 3027.113607400418 1163.4570073239606
-1145.9200981216268 2812.4246990741476 1080.942325953467
-1281.2499572775894 3217.5333347854585 1236.6439421047464
-1206.8868621780655 3166.1946827943934 1216.9121704726717
-1148.1056683379481 3024.3133172918147 1162.3807288713022
-1144.396222829718 3170.8618329753995 1218.7059678937694
-1092.197375599563 3093.387139970702 1188.9289307035478
-1089.310587397875 3098.987720187909 1191.081487608865
-1052.4404720193368 3062.583948776063 1177.089867724303
-1108.923318450544 3241.802515726689 1245.9716886944543
-1035.085379583907 3112.0557406947255 1196.1041203879386
-1161.1673819543234 3524.6318166956457 1354.6758124129742
-1045.6532638267395 3236.201935509482 1243.8191317891371
-1002.839767925697 3134.4580615635537 1204.7143480092075
-926.7203730025163 2940.3046140337087 1130.0923752915437
-1060.2095438258582 3380.8835911206643 1299.4268518431654
-880.3983051984025 2880.565091716833 1107.1317683014934
-1053.7515422004192 3465.825724414972 1332.0739649071434
-1076.458023086541 3559.1687280350893 1367.9499133290972
-1018.3663755249222 3458.358284125362 1329.2038890333872
-754.8312449507132 2726.549135743639 1047.9364534052695
-736.7631520090696 2757.352326938278 1059.7755163845143
-955.442674159479 3597.439359519338 1382.6590521820983
-922.1249433539645 3580.6376188677164 1376.2013814661466
-817.3071945728688 3432.2222431117293 1319.1586234752401
-774.9474257874972 3393.0181815912797 1304.0907251380195
-180.48465094236187 1064.1102412693422 408.985812010273
-84.19507118196572 501.25192944003226 192.65384302589175
-176.99119873990637 1064.1102412693422 408.985812010273
-90.61896036310392 573.1260422275229 220.27832331079614
-88.2841240965194 588.9943528429429 226.37723454252827
-77.90520195502761 525.5211103812628 201.98158961559972
-62.59986581174928 447.112987340364 171.84579294115855
-62.63794418450923 452.713567557571 173.99834984647578
-59.837322373306506 465.7815880643875 179.0209826255493
-53.45271977557249 450.8467074851687 173.2808308780367
-54.52888948124305 543.2562810690853 208.79801981577094
-41.437440691641214 466.7150181005887 179.37974210976884
-35.31680163116592 438.71211701455337 168.6169575831827
-33.147658281747766 546.99000121389 210.23305775264907
-31.744798926592107 538.5891308880794 207.00422239467323
-25.237665736149307 515.2533799830499 198.0352352891848
-21.832867264572013 536.722270815677 206.28670342623417
-22.25254292075608 570.3257521189194 219.20204485813753
-13.378643454782928 645.0001550150135 247.90280359570053
2.189803855854566 867.1565036308938 333.2875608399505
78.77313759974517 3785.9922268319756 1455.128467994445
77.32550492832247 3441.556543473741 1322.7462183174355
100.71528906441691 3459.2917141615635 1329.5626485176067
97.04006342660183 3153.1266622875773 1211.8895376935982
134.57454180423488 3443.423403546143 1323.4637372858745
129.1508251560343 3169.9284029391983 1218.34720840955
167.37337561763536 3412.6202123515045 1311.6246743066297
171.7612422599773 3387.4176013740725 1301.9381682327023
206.45836392407784 3403.285911989493 1308.0370794644343
225.805688568058 3274.47256699373 1258.5282706421383
241.88294859667454 3065.3842388846665 1178.1661461769618
263.357680058121 3268.871986776523 1256.375713736821
429.63269690665163 3952.142773275785 1518.9876561855226
404.02613246425267 3660.912601981018 1407.0546971090268
413.31918701302936 3689.8489331032542 1418.1762411198324
418.02815153800026 3428.4885229669244 1317.723585538362
506.6324666932459 3659.9791719448167 1406.6959376248074
498.8046008281461 3561.0355881074915 1368.6674322975362
501.62921369020273 3539.5666972748645 1360.415964160487
501.31289648599966 3202.5984542062397 1230.903790357234
787.002610623973 3625.442260605373 1393.4218367086844
1042.5236515248941 3241.802515726689 1245.9716886944543
-1803.6176915393805 3136.5559096365128 1199.2418545582323
-1691.667149597419 3031.007720896511 1158.8861876240212
-1674.1868488249038 3094.5234450940343 1183.1710137437235
-1551.5273554185733 2914.2508749451817 1114.2449631392747
-1681.5698239772942 3201.939743369257 1224.2409402696903
-1547.2177417135879 3056.227199621998 1168.5286921127265
-1651.5553989037646 3329.905246531914 1273.1677223049726
-1628.367842983824 3332.707410834746 1274.2391116926065
-1185.2034319495647 2608.814965936504 997.4635198871777
-1377.9653983627093 3170.1818812704955 1212.0985272098392
-1216.1453641159246 2920.789258318456 1116.7448717104205
-1181.927881421312 2891.833560522526 1105.6738480382035
-1103.0013047135276 2761.0658930570376 1055.675676615287
-1249.6554558651742 3140.2921287069553 1200.670373741744
-1078.0858468159017 2830.1859458602244 1082.1032815102571
-1194.165339499865 3227.159222094744 1233.8834447583956
-1107.0280581288266 3137.4899644041234 1199.5989843541101
-971.0626471429713 2907.712491571907 1111.7450545681288
-1148.0941012901285 3454.1345306241287 1320.6659851567429
-1171.8116514498702 3576.495705181122 1367.4499884167574
-965.9177019149432 2976.832544375094 1138.1726594630989
-1129.196948303234 3497.101049934218 1337.0939557671297
-1097.8079174791133 3433.585325736695 1312.8091296474274
-925.2493882834647 2937.6022441354476 1123.173208036224
-904.7784925360927 2887.163286684473 1103.8881990588136
-974.8285835589569 3191.66514092554 1220.3125125150325
-1070.4957762402319 3523.2545834273155 1347.093590051713
-1031.0100606191588 3503.6394333074923 1339.5938643382756
-957.5096671834401 3363.531218165897 1286.0243949565795
-757.4153984767341 2737.7145238667713 1046.7474317183378
-940.9551087053568 3441.05776387758 1315.6661680144514
-762.9514157060745 2857.2735341209327 1092.4600455907184
-930.1386456686264 3547.540007385192 1356.37896474454
-761.7867428281318 2960.0195585581027 1131.7443231372954
-831.9909515123147 3381.278258750499 1292.809861078261
-735.4238906644634 3008.5904064738556 1150.31507252295
-700.8542514693958 3092.655335558813 1182.4567541519675
-134.9108595864442 678.123761285321 259.2762318074082
-115.9890134862995 629.552913369568 240.70548242175357
-70.98977188054232 449.2803432207155 171.77943181730484
-91.22226451811514 609.0037084821341 232.8486269124382
-63.277814281367824 486.64253392514087 186.06462365242376
-61.636039478716526 480.10415055186644 183.56471508127794
-65.30616019012783 543.6198747493896 207.8495412009801
-50.86003377077785 461.42305519965373 176.4221191637185
-46.142574255735944 424.99491926283895 162.49405712447756
-42.06782023552943 419.39059065717515 160.35127834920974
-53.99846919954631 547.3560938198322 209.278060384492
-75.9610201658726 872.4071529483332 333.5592293500265
-36.744502122638586 456.75278136160057 174.63647018432863
-70.89497515324302 919.1098913288649 351.4157191439251
-26.197794323937597 535.2133818408939 204.63537303807834
-15.021499180348616 489.4446982279728 187.1360130400577
-16.281757056004153 633.2891324400106 242.13400160526547
-13.301198340717615 641.6956253485063 245.34816976816722
-7.482252306177452 821.9681954973589 314.27422037261596
-4.940842700417895 854.6601123637312 326.773763228345
-0.5018176864915419 628.6188586019574 240.3483526258756
100.47070255562582 3453.200475856518 1320.308855360865
139.754694944978 3578.3638147163433 1368.1642480085134
173.37061637417537 3537.265404941475 1352.4505369898825
199.92954334670625 3390.6188064266053 1296.3811590370408
227.5436456921565 3301.883603503595 1262.4538284286334
254.1078243621904 3156.171059756336 1206.7415802716696
257.67839943768286 2902.108162966243 1109.602275792861
270.59184530397863 2991.7774206568643 1143.8867361971465
291.74427755213 2955.3492847200496 1129.9586741579055
347.8203026866845 3465.3431878354563 1324.9515427072786
417.1516336757782 3839.899149647321 1468.1605908543456
377.8602381129217 3426.1128875958098 1309.9520912804037
440.6970627114176 3717.5379750903276 1421.376587594331
448.5171924488501 3731.548796604487 1426.7335345325007
493.33373555044665 3840.8332044149315 1468.5177206502235
492.9362051606052 3563.4189384345727 1362.4501712744657
508.8858685891943 3433.585325736695 1312.8091296474274
535.9598532928674 3390.6188064266053 1296.3811590370408
896.7879578693337 3097.325609396866 1184.2424031313574
-1767.094164730364 3075.086190762764 1169.5917746718953
-1743.4978049610525 3041.4378312285817 1156.7938099642395
-1597.2335489689378 2820.854140948943 1072.8960413251611
-1667.1653449653454 2989.0959386198538 1136.8858648634412
-1641.8451771301275 3036.7644479599453 1155.0163148659537
-1427.9371728844078 2728.3211522299416 1037.7016383791072
-1500.066306213293 3026.483004768945 1151.1058256497256
-1151.1056686006864 2510.5414919114846 954.8703667990003
-1087.179087953736 2394.6415868493013 910.7884883615185
-1435.0296907722927 3247.0666950485843 1235.003594288804
-1117.7760266775508 2747.0146853044876 1044.8116187722494
-1420.0797670771524 3503.16809816986 1332.4103256748522
-1100.3819299168704 2833.0049374473974 1077.5175285807036
-1088.2199097116786 2870.392003596489 1091.737489366988
-1033.2849519645974 2782.5323981461243 1058.3205815192196
-1043.1232980059601 2820.854140948943 1072.8960413251611
-1133.730593075385 3159.2070895982197 1201.5866864410355
-1167.5962566749117 3402.2230195673133 1294.0164315518844
-970.6671143362089 2841.4170273309433 1080.7170197576177
-1022.6668387370696 3078.824897377673 1171.013770750524
-1124.7319083170237 3468.5850619819507 1319.2568619475392
-1012.0121445385496 3151.729676368401 1198.7426942837785
-1015.1316118133838 3241.4586351262205 1232.870600170861
-1060.3685761647278 3403.1576962210406 1294.3719305715413
-935.9075596929447 3182.5740059414015 1210.4741619324632
-841.310910016219 2957.3169323931265 1124.7988981950994
-847.566984440974 3083.4982806463095 1172.7912658488094
-914.593933113493 3427.4592892179503 1303.6149050826264
-912.5094590645592 3548.03257754877 1349.4742786183936
-894.3701136527656 3499.429391554951 1330.9883295962238
-776.1862179625939 3263.8908748156755 1241.4025766426319
-704.4479904744543 3003.1160884257633 1142.2183501582979
-799.0712169426062 3528.4043678204966 1342.0087992055942
-138.11892535962846 667.3591307612808 253.8263000351773
-118.50559002441283 667.3591307612808 253.8263000351773
-107.36009520076907 615.9519148062801 234.27385395403618
-81.42067717772129 510.333452935097 194.10246473278264
-78.77014558849513 526.2229560484609 200.14594806695354
-68.19141140086778 493.5092731680059 187.70348237895465
-60.07715132069451 468.27300351736926 178.10500884821263
-52.01403373606433 439.29802725182344 167.0845392388422
-49.857035371996105 646.7962443792804 246.00532160272084
-35.826155541681544 508.46409962764244 193.39146669346843
-27.322137878452594 540.2431058543701 205.4784333618102
-20.807671758235585 512.2028062425516 194.81346277209687
-17.94553146354625 585.1075852332798 222.54238630535153
-13.612323922320915 469.2076801710965 178.46050786786975
-10.184032499588742 491.63991986055134 186.9924843396404
-9.8846292902352 518.7455428186425 197.30195590969663
0.5390539091595679 625.298681343553 237.8288441506073
98.73496092280358 3212.483658860675 1221.8501305614907
135.8148601618776 3479.801181826678 1323.5228501834245
128.54234070300234 3159.2070895982197 1201.5866864410355
168.7925699951372 3446.152822292496 1310.7248854757686
168.3061387369742 3323.710180654222 1264.1545139006869
200.0947743742655 3395.6802829912226 1291.5279384142846
237.7782820896255 3452.695558868587 1313.2133786133681
222.99684136177146 3162.0111195594013 1202.6531835000067
240.0415741402443 3046.1112144972185 1158.571305062525
340.6142102647181 3452.695558868587 1313.2133786133681
349.6953447496855 3486.343918402769 1326.0113433210242
372.0980395740887 3427.4592892179503 1303.6149050826264
414.1216350092544 3757.4001479836816 1429.1060590215864
401.2779284588385 3387.268193107677 1288.3284472373705
446.8331479215077 3720.01308183459 1414.886098235302
467.7081961899914 3597.5704401963158 1368.3157266602204
587.4474776599417 3570.4648172382244 1358.0062550901644
909.9869252128813 3093.7797238373096 1176.7017550650376
1155.363803702611 3784.5057709417724 1439.4155305916427
1052.274960049712 3393.810929683768 1290.8169403749703
1164.0704085838074 3697.580842145135 1406.3541217635313
1125.8698625503678 3558.31402073977 1353.3847678346217
-1931.1154496325034 3379.2233375688315 1278.5220509753315
-1462.2053438821788 2657.1750628378218 1005.3366030503505
-1398.1579268431638 2622.569122209522 992.2435181109408
-1820.587782097842 3433.470487742923 1299.0463462857574
-1704.1480053165762 3231.4466181290654 1222.6110396124468
-1623.1956089675807 3094.89344700118 1170.9464341758571
-1723.592921006323 3351.164466789129 1267.906036159594
-1596.7407719057069 3149.1405971752715 1191.470729486283
-1536.457800164732 3083.669898689299 1166.7000282495621
-1505.1384299817355 3191.228903344825 1207.3947517098895
-1479.875822897739 3272.599628605962 1238.1811946755286
-1243.491513707311 2968.628528492519 1123.174367505038
-1265.5662842923823 3260.4407846014246 1233.5809215887089
-1251.1240467104187 3236.123096592349 1224.3803754150697
-1116.1568651688065 2934.0225878642195 1110.0812825656283
-1181.358333554368 3223.964252587811 1219.78010232825
-1162.552345706045 3213.675999968587 1215.8875635624795
-1058.5350678646178 3086.4757857672694 1167.7616297311358
-963.5761378171019 2889.1283946166955 1093.095658860448
-1130.2795910642988 3421.311643738385 1294.4460731989377
-980.7686486968172 3026.6168614372373 1145.1141314575623
-1134.0225762874359 3516.7118043893734 1330.5405235724456
-880.4639624294879 2979.8520768044 1127.420773431333
-864.7595672894896 3024.746270051924 1144.406397136513
-945.9659401975346 3443.7587403621474 1302.938885051528
-940.8751377183047 3660.7473410585126 1385.036066293232
-767.0465905285871 3003.2344691208186 1136.2674524444476
-869.3196730961354 3657.9414539805425 1383.9744648116582
-710.4143321453845 3009.781538969416 1138.7445225681197
-699.3725300075155 3090.2169685378963 1169.1770983732342
-148.59849504642523 760.3953981299363 287.6940015064889
-83.56791981375741 498.5126041860468 188.61119655960465
-90.06976010136202 564.918598364676 213.73576495685032
-87.51961481322577 554.6303457454517 209.84322619107985
-85.4858951235711 571.4656682132731 216.2128350805224
-71.09462839580712 508.80085680527105 192.50373532537512
-71.67847221113944 519.0891094244953 196.39627409114556
-61.94181436371898 477.0008032549416 180.47225186753917
-62.595355268268534 488.2243515668226 184.7186577938342
-52.9630714943992 441.4595669339852 167.02529976760488
-123.8581804481464 1061.5606111654092 401.6392271954058
-45.635513000178406 420.88306169553675 159.24022223606397
-88.184083459476 825.8660966159088 312.46470274320995
-42.62997373533606 425.5595401588205 161.00955803868692
-40.442942115041824 456.42429801649314 172.68717433599826
-76.3517124262816 895.0779778725081 338.6508726220294
-33.147658281747766 548.0832758968545 207.36615606740776
-31.909849874217368 542.471501740914 205.24295310426024
-25.19194532720701 515.3479266538683 194.9808054490472
-24.073109296936792 592.9774691443785 224.35177977258792
-19.70315175143869 505.9949697273008 191.44213384380134
-17.110311543793816 590.1715820664082 223.29017829101414
-11.481238160182745 554.6303457454517 209.84322619107985
-11.576382615668816 665.9305331716048 251.95341829350568
64.27929318869984 3364.2586064863235 1272.860176406938
75.9764581583341 3658.8767496731994 1384.328331972183
99.57388535672519 3426.9234178943257 1296.5692761620853
119.15991210584501 3879.606533140192 1467.8409818559853
122.71855750323832 3146.334710097301 1190.4091280047094
164.57577471854793 3888.9594900667594 1471.379653461231
169.2961550968314 3458.723471444655 1308.6007596199213
168.0694878107411 3321.235004624113 1256.5822870228071
213.3271270149929 3429.7293049722957 1297.630877643659
213.90031044012662 3035.0345226711484 1148.2989359022836
247.33963726760703 3076.187533148045 1163.8690909653653
275.09470580456843 3102.3758125424342 1173.7773714600537
346.69527744888387 3458.723471444655 1308.6007596199213
382.44818957042276 3525.1294656232844 1333.725328017167
383.8351273742492 3484.911750839044 1318.5090401146097
407.14650743464387 3439.0822618988636 1301.169549248905
414.0504144559097 3449.3705145180875 1305.0620880146755
463.21217040172695 3565.3471804075243 1348.9416159197242
491.09045365937527 3512.9706216187465 1329.1250549303472
510.8239540517211 3451.241105903401 1305.7698223357245
539.0282242416993 3601.8237124211378 1362.742435180183
480.88739453853145 3046.258070983029 1152.5453418285786
570.9334809649337 3507.358847462806 1327.0018519671999
594.8723824183442 3512.9706216187465 1329.1250549303472
662.5002010656193 3333.393848628651 1261.1825601096266
683.0650779949067 3301.5937950783214 1249.1510766517908
714.7655375230719 3427.8587135869825 1296.92314332261
-1772.1418550097078 3043.5854419333514 1145.465694663688
-1752.5921761444308 3053.880472640998 1149.3402711216527
-1777.6187964705316 3120.3302162994446 1174.3489009866962
-1679.7259159660514 2963.097020037205 1115.1735514468746
-1608.876735873284 2845.1721228405254 1070.7920392920087
-1701.1875913829278 3046.3931775808915 1146.5223973340421
-1655.7249529281835 3010.828526045385 1133.137496842892
-1654.4536381118464 3105.3556261792314 1168.713153411475
-1659.4955409904278 3166.189898542598 1191.608377935811
-1560.0176924728937 2984.6229933350114 1123.274938586255
-1617.0281032770956 3137.1766301846847 1180.68911700882
-1553.111383424767 3065.111415231158 1153.5670818030685
-1500.2859907291565 3183.036312427838 1197.9485939579347
-1186.6684640969527 2574.6935887941727 968.9963487145775
-1359.9603116765813 3124.073863829498 1175.7578378805015
-1416.71170444841 3486.271762362157 1312.0724823561618
-1104.0854966016068 2727.2472256438455 1026.4105271371425
-1210.6476024361828 3264.4606462064976 1228.5929713981993
-1141.57497509086 3157.7666915999775 1188.438269924749
-1072.007332364713 3127.817511359551 1177.1667747743068
-1055.5978149475793 3167.125810425111 1191.9606121592622
-1179.4509169283933 3555.529241668143 1338.1378148915594
-1160.8598694061363 3533.0673564878234 1329.6841935287277
-990.1641456404517 3057.6241201710513 1150.749208015458
-994.0914731350802 3162.4462510125445 1190.1994410420057
-1083.0412236763323 3462.8739652993236 1303.266626769879
-1015.054170413453 3329.9744779824305 1253.2493670397917
-1042.39951912258 3437.6043444714637 1293.7563027366932
-938.7746642727465 3179.292664897784 1196.5396570641294
-910.2169347722396 3185.8440480753775 1199.0052966282885
-849.9280947082834 3078.2141815863447 1158.498360931387
-769.207502702721 2802.1201762449123 1054.589265013248
-912.1953395616948 3464.74578906435 1303.9710952167816
-867.839821701343 3421.693842468737 1287.768320938021
-709.9728067680412 3009.8926141628713 1132.7852626194406
-798.3983795252207 3504.9900000124235 1319.1171668251882
-141.4662690681969 695.3825287074047 261.71002802432974
-148.73254140158755 755.2808891882579 284.2530183252141
-146.27075795577787 755.2808891882579 284.2530183252141
-80.22770022273637 503.5205927921719 189.50201221680942
-84.71544503000268 537.2134205626518 202.18244426105687
-69.09546420353081 500.7128571446319 188.44530954645546
-61.27629605763452 478.250971964312 179.9916881836238
-116.59850899134292 921.8732042756308 346.9507100995488
-53.86075067227038 449.2377036063987 169.07242725663292
-42.161512485497205 421.1603471309988 158.50540055309338
-46.60030805066486 516.6233591473585 194.43329134512788
-74.5167182927346 874.1416982674508 328.9867647035316
-38.97112621511337 567.1626008030784 213.45393941149908
-33.20422425151184 549.3802750353251 206.76148916592402
-26.426396368649094 540.9570680927052 203.59138115486215
-40.66008193065581 892.8599359177175 336.0314491725579
-20.7697015542972 511.94379973479187 192.6721202278713
-21.596985191503038 554.995746330405 208.87489450663193
-13.846152870435844 452.0454392539387 170.12912992698688
-16.893382078896273 583.073102805805 219.4419212101715
-12.178244186770568 588.688574100885 221.5553265508794
-0.6009881951146846 754.3449773057446 283.9007841017628
30.90269424729383 3377.7059839906105 1271.2133124358088
36.36998364727818 3365.539129517937 1266.6342675309418
73.10209317688383 3522.7723257801767 1325.8096170707631
109.19161666208217 3557.40106543317 1338.842283338462
121.40527924220486 3114.7147450043644 1172.2354956459883
150.21959934226604 3696.851935927656 1391.3251826327084
156.88964940963797 3207.370021373184 1207.1066837676688
193.72244821440813 3830.6873351270624 1441.6946765862472
178.117964912341 3410.462899878577 1283.541510256605
252.06619017659295 3578.9270387309766 1346.9436704778423
402.1797940813113 3886.8420480778623 1462.828729993326
396.958693977048 3661.2872843921496 1377.9402821415583
360.656677653582 3276.6275006791707 1233.1720163030664
421.05650546457605 3768.917150881183 1418.4472178384601
442.3579812894757 3738.967970640756 1407.175722688018
403.0479902106062 3359.9236582228573 1264.5208621902339
445.5840208741145 3475.9767316545103 1308.1979058981974
453.7340619832236 3494.694969304777 1315.2425903672238
489.65222283129935 3504.9900000124235 1319.1171668251882
691.9662093228857 3346.8208918676705 1259.5895830619154
1109.339090081131 3528.3877970752565 1327.923022411471
-1814.6471024545901 3118.6289873286255 1167.4987106603724
-1708.3492293469158 3068.9931505933655 1148.9168993495616
-1616.094607458656 2940.6891952588244 1100.884670112183
-1606.6112728729936 2946.308346587344 1102.988271392652
-1644.6727326440562 3039.960868729345 1138.0482927338044
-1750.6891872847175 3288.140052405647 1230.957349287858
-1619.2056299490043 3152.343895299746 1180.1203183431871
-1518.8457782347325 3008.119011201065 1126.1278854778125
-1358.4393349955092 2729.9710204393223 1021.9996220945901
-1426.9208632953394 2876.0689549808435 1076.6932553867878
-1376.4872879471675 2816.131340809963 1054.2548417284502
-1514.058874926953 3164.518723178206 1184.6781211175369
-1474.0018252077452 3139.2325421998657 1175.2119153554258
-1288.7535435555676 2788.972109388783 1044.087435539516
-1339.4589114367361 2965.9753762371643 1110.350875874294
-1197.7873333703715 2670.033406268442 999.5612084362526
-1219.6456225991492 2936.943094373144 1099.4822692585367
-1416.71170444841 3488.556449789529 1305.9857949579239
-1188.6966531400437 2995.0076581011845 1121.2194824900512
-1174.8328213784398 2971.5945275656845 1112.454477154763
-1260.3983113217994 3238.5042156703867 1212.3755379770473
-1123.2536097534799 2897.609035073504 1084.7570602952528
-1044.7942309203133 2716.8596673394422 1017.0912191068288
-1101.2131009555167 2898.5455602949237 1085.1076605086644
-1089.5134243254522 2939.752670037404 1100.5340698987713
-1026.8761260820274 2842.354047009723 1064.071647703973
-1137.6585353240969 3162.645672735366 1183.9769206907138
-1051.2503379586722 3000.6268094297047 1123.3230837705203
-968.1127271932189 2839.5444713454635 1063.0198470637383
-1004.0390274668133 3028.7225660723047 1133.841090172866
-994.7103538389846 3073.675776700465 1150.6699004166192
-901.7136327786388 2870.4498036523237 1074.5896541063187
-889.5275163994228 2920.085640387584 1093.1714654171294
-942.2179154606495 3109.263735114426 1163.992708526257
-906.441241923641 3071.802726257625 1149.968699989796
-932.3343443402257 3176.6935510566664 1189.2359238918866
-989.6020793567366 3390.2213015404277 1269.172772549714
-915.497301891859 3224.4563373490864 1207.1165347758745
-858.3574704508319 3128.930764764246 1171.355313007899
-924.0715904514567 3469.8259453611286 1298.9737906896935
-859.2546204083861 3368.6812214477677 1261.108967641249
-840.92580962603 3404.269179861728 1274.4317757508868
-824.6363353663495 3360.2524944549878 1257.9535657205452
-831.6130482261229 3527.890509089169 1320.711003921208
-129.41395107225694 626.5353731299851 234.551542772309
-134.72503195615982 678.9807855295056 254.18515472335432
-130.117935848229 661.1868063225254 247.52375066853537
-88.18416717096102 521.6445483309443 195.2843188702184
-92.68519072968935 588.1378390517649 220.17693402243657
-90.10297292893581 603.122242594485 225.78653743702094
-125.44259721739391 931.8425953129076 348.84721234446556
-54.55940134442492 461.7069341600638 172.84590521188093
-50.34525610103313 457.9608332743838 171.44350435823483
-53.87304373146865 538.5020023165044 201.59512271162583
-76.28633502739667 878.4606576919672 328.8630001800088
-52.399656817237684 666.8059576510454 249.62735194900452
-29.69713412613921 491.67574124550407 184.06511204104967
-24.734741237784014 506.66014478822416 189.67471545563404
-17.335859951358255 445.78600539592367 166.88570158388504
-14.820830298168387 484.18353947414397 181.2603103337575
-14.20887995078916 490.73921602408404 183.71451182763815
-7.098050776956265 661.1868063225254 247.52375066853537
-5.943289047747772 654.6311297725854 245.06954917465472
0.5519460803801255 641.5197766727052 240.1611461868934
70.8019348383733 3710.5129272660706 1389.078045536455
111.31403777869716 3836.0073069363516 1436.058474133599
106.7785422607102 3481.0642480181687 1303.1809932506317
101.03703367389123 3125.1846638785655 1169.952912154253
152.1213985697098 3905.310173321432 1462.0028899260517
139.19081863106172 3427.6823103972283 1283.196781086175
163.82339178187803 3730.1799569158907 1396.440650018097
175.07435522724057 3464.2067940326087 1296.8701894092244
194.25272953289056 3398.650028533208 1272.3281744704177
207.81738771293627 3437.0475626114285 1286.70278322029
219.722913355201 3445.4762896042084 1289.8581851409938
239.38750164897598 3482.9372984610086 1303.8821936774548
273.70189920378886 3480.1277227967485 1302.8303930372201
255.6355690527347 3057.7548479363254 1144.7096967886232
299.72633909487797 3384.602150211908 1267.0691712692449
332.9609943870864 3381.7925745476477 1266.0173706290102
350.5391136780359 3501.667802889409 1310.8941979456852
374.6348410437784 3457.6511174826683 1294.4159879153437
365.08633693353175 3319.0453847125073 1242.5271563304382
415.6725561353421 3515.715681210709 1316.153201146858
434.932566594955 3628.09870778111 1358.2252267562408
446.1838916615056 3482.9372984610086 1303.8821936774548
481.92535881774637 3714.2590281517505 1390.480446390101
534.8157494185491 3923.104152528412 1468.6642939808708
600.9450113110238 3519.461782096389 1317.5556020005042
656.748689720882 3178.5666014995063 1189.9371243187097
1484.8690758288456 3614.9873546812296 1353.3168237684795
-1740.5353889609491 2993.211449781973 1114.5946424122535
-1723.0510882841968 3006.331349687091 1119.480154307611
-1556.1074262566103 2748.6190301222687 1023.5147420773762
-1617.5654670753186 2900.4350147386367 1080.0470940093692
-1708.3492293469158 3070.9937135051737 1143.5587486490153
-1732.4122448107757 3154.3987914734253 1174.6166456980732
-1633.9900135756948 2982.90295699938 1110.7560259230443
-1644.1660558933957 3041.005370864904 1132.39186431677
-1640.329161269435 3041.942506572412 1132.7408294521526
-1498.8693037745206 2871.383807805875 1069.2291748125062
-1613.9141082825045 3144.0902986908327 1170.7780292088637
-1489.856107712056 2996.0228569044984 1115.6415378184017
-1360.4768113737396 2743.9333515847266 1021.7699164004629
-1479.993972036554 3144.0902986908327 1170.7780292088637
-1198.2951274149054 2611.7972168260358 972.5658323115063
-1393.9825542263945 3078.4907991652412 1146.3504697320768
-1295.895833483473 2871.383807805875 1069.2291748125062
-1145.5479477253236 2740.1848087546928 1020.3740558589323
-1153.918546636376 2780.481644177556 1035.3795566803872
-1130.6896224187972 2734.5619945096423 1018.2802650466363
-1131.2405455694386 2920.1148645963144 1087.3753618524051
-1034.136814988016 2803.910036865267 1044.1036850649539
-1166.2741372668036 3230.3067837816093 1202.8828216640695
-1006.2736289644885 2799.224358327725 1042.3588593880406
-1077.6962637931715 3064.433763552615 1141.1159927013366
-968.1127271932189 2841.395465165605 1058.0622904802608
-966.4729414051299 2917.303457473789 1086.3284664462572
-1088.66532327533 3366.191461370334 1253.482766294557
-974.7768528087747 3028.8226066672937 1127.8553175567952
-987.0310827666466 3160.021605718476 1176.7104365103692
-977.110886359212 3209.6897982164237 1195.2055886856508
-947.3416394250736 3212.501205338949 1196.2524840917988
-932.3343443402257 3178.764319868645 1183.6897392180226
-892.8361766170705 3129.0961273706976 1165.194587042741
-858.3574704508319 3130.970398785714 1165.8925173135065
-776.1240649727124 3044.7539136949376 1133.7877248583006
-884.4560108477035 3491.7676461764654 1300.244094435835
-784.4157783181023 3198.4441697263223 1191.0180070610588
-715.2711112961609 3036.3196923273613 1130.6470386398564
-771.3418581559886 3414.922518160773 1271.628953334456
-752.0604316767074 3453.3450821686192 1285.9365238851456
-124.31868466023576 626.9437883231496 233.4576755710074
-154.44593518529166 785.3197228920768 292.4327834506789
-83.41113197170533 498.5561963944927 185.64945202358138
-89.88102094646626 570.7156458726429 212.5197674480471
-118.13737256178705 935.261436093428 348.26720511190643
-58.91019604779572 491.9962464419336 183.20669607590267
-45.83833750240142 423.58533979381707 157.73224119296765
-64.91467072328358 609.1382098804892 226.82733799873665
-41.437440691641214 468.5678537542224 174.48256769133587
-36.81964425376873 459.19649667913797 170.99291633750917
-45.11197894494827 641.9379596432848 239.04111773713015
-26.56355759547599 544.4758460624065 202.74874365733228
-21.415195021249765 528.5445390347629 196.81633635582688
-11.887825009025642 575.4013244101851 214.26459312496047
-10.098351004618664 531.3559461572883 197.8632317619749
-5.7902429778486875 638.189416813251 237.64525719559947
31.23663857415569 3418.671060990807 1273.0248138759866
65.40511900768458 3429.916689480908 1277.2123955005786
98.92165466661564 3411.1739753307393 1270.2330927929252
171.7612422599773 3400.8654825481467 1266.394476303716
206.96799784489974 3425.231010943366 1275.4675698236654
246.858755808405 3509.573224619126 1306.8744320081057
277.6056130514209 3532.0644815993287 1315.24959525729
274.56278980359787 3421.4824681133323 1274.0717092821346
301.46796973156654 3406.488296793197 1268.488267116012
342.27394382854186 3478.6477462713474 1295.3585825404775
413.9156043450707 3765.4112727689317 1402.1419139675752
446.6637882914185 3488.9562390539404 1299.197199029687
456.04283198260265 3517.0703102791936 1309.6661530911672
489.70595479913334 3551.744331457006 1322.5778631003259
648.3728118173065 3268.729347789456 1217.1903922147592
1176.1687015287655 3653.8921235754265 1360.6150628570372
462.6149668648414 995.2381213739685 370.60097377639744
-1785.7653317548625 3072.9849216375414 1138.1971144702102
-1810.6001304881631 3161.132795495927 1170.8460399386875
-1850.4073309238104 3246.4674393375553 1202.452978424128
-1773.3533644454074 3118.934345244572 1155.21623519314
-1692.1884645895907 3043.914878131053 1127.4299156454997
-1518.5425537937929 2817.918733451575 1043.7236280082336
-1641.71193977392 3147.066645412142 1165.636105023505
-1812.4029188580098 3523.1017243186584 1304.9150317560513
-1352.3969258254467 2681.9459493083214 993.3609238281359
-1307.0427836046206 2637.8720123791286 977.0364610938973
-1366.6447199904924 2766.3428498110306 1024.620533319231
-1490.1399813828552 3167.69699886836 1173.277342899106
-1306.0219035999412 2785.0977165894105 1031.5671132061411
-1238.862896723536 2693.198869375349 997.528871760282
-1078.7504896115279 2545.035421826148 942.6508906536926
-1126.6943139890736 2716.642452848324 1006.2120966189195
-1429.3081356722842 3510.9110609127115 1300.3997548295597
-1223.1428185163727 3304.6075263505327 1223.9873760735493
-1046.5796376282462 2839.486830246712 1051.7121948781803
-1059.501360258894 2949.2028009002343 1092.349687216604
-964.6004448716077 2832.922626874279 1049.2808919177617
-1091.1587342454588 3280.226199538639 1214.9568222205662
-1124.7319083170237 3479.9655307283847 1288.9378980161582
-1099.708175962986 3505.2846008791976 1298.3157808634867
-1069.5763868414372 3426.5141604100018 1269.1401453384647
-1021.3982764285776 3374.9382767694574 1250.037050649462
-931.7846189013458 3178.949918935388 1177.4452908312521
-900.0558761584484 3156.4440788013317 1169.10939496696
-951.6180995360314 3473.4013273559517 1286.5065950557396
-825.3044245084669 3102.992708482949 1149.3116422892663
-785.9181821361108 3085.1755850434884 1142.7123913967018
-750.2400001697978 3041.1016481142956 1126.3879286624633
-854.7442952138946 3487.4674774397367 1291.7165299709222
-849.7155886971985 3609.374111499206 1336.8692992358374
-837.3130643081049 3581.2418113316357 1326.4494294054725
-678.7985154628311 2985.774791118075 1105.8955179960785
-146.9957679084707 760.5098478633037 281.6838144142022
-157.94603733263642 838.3425449935801 310.51212094487886
-154.5205320632766 834.5915716379042 309.12280496749685
-97.15226276670889 543.8911365730162 201.4508167203912
-91.87767544251753 549.5175966065301 203.53479068646422
-81.61609948012453 518.5720664222033 192.07293387306265
-123.04721093887082 915.2374987849375 338.99309848121004
-61.57745074981475 475.43587283192966 176.09580013316955
-116.95363135375311 926.4904188519655 343.1610464133561
-54.534010055673754 455.7432627146308 168.80189125191401
-53.01004714803151 449.17905934219783 166.3705882914955
-45.24957448397892 502.6304296605805 186.1683409691891
-75.15497712179442 883.3542252616918 327.18391267346294
-43.99241158427072 626.4125503978876 232.01576822279537
-33.26079022127592 551.3930832843681 204.22944867515523
-32.18493478692614 548.5798532676112 203.18746169211872
-25.05478410038011 513.8833497276084 190.33628890133514
-42.53626189960978 903.0468353789906 334.4778215547185
-22.21256930395587 548.5798532676112 203.18746169211872
-14.046821752616074 459.4942360703068 170.19120722929603
-13.720788654769686 474.49812949301065 175.74847113882404
-13.688423911044183 662.9845406157283 245.56159900226996
-5.670397504537299 528.8872431503123 195.89355281086316
-5.9943044043808005 661.1090539378904 244.86694101357895
31.553457550922072 3455.584203916491 1279.9073441631751
