# .PCD v.7 - Point Cloud Data file format
VERSION .7
FIELDS x y z
SIZE 4 4 4
TYPE F F F
WIDTH 848
HEIGHT 1
VIEWPOINT 0 0 0 1 0 0 0
POINTS 848
DATA ascii
850.7357648321339 2511.91997604519 2231.5595519602725
1119.6422903988812 -3611.2951780011927 -1229.9480222128639
1094.059321958891 -70.29487373311846 3565.3070878574886
1120.2384321252666 -434.32712700655037 3522.3232314406123
1060.0949582626524 -2186.944601537143 2309.9857812998644
1302.056542845706 2211.2163677342787 -2760.596162980747
1393.2704317408825 -2432.025826762168 -2785.759210334194
1351.6146918065533 3062.5316711196856 -1546.8227963761285
1541.4864029897008 -2963.563796771978 2173.2267765841775
1522.611521681377 3127.21453317295 1549.3964190974139
1600.6866450657387 -2644.7782306336035 2442.3652697265793
1611.085098527159 3476.7890767496897 -336.1349666339992
1632.6759046572997 -729.3671981666952 3339.2734973701185
1772.7825700165029 -3488.375630742444 1070.7177307032202
1996.019082866877 782.3020229898626 3964.5535114090676
1935.101585570972 3714.231334667424 773.9002471731375
1877.3298819682238 717.7444844273875 3552.213233334123
2081.2496144372503 3758.4878694837716 1237.5855263145809
1825.8029291077687 934.0001874210562 3289.991436143479
1958.449997844353 3557.7266775792436 -211.36907919787765
1960.4481840526767 -259.3256595553922 3508.429021983509
2253.0884096586524 -1744.0042889292783 3586.44573919588
2278.4666050992537 -388.252715106068 -3960.0127309407435
2089.985665765187 -2258.264872776332 2806.1795673806223
2242.9885227480777 2736.96045497495 -2659.1170466723183
2087.3066057062365 -3413.884558978911 220.52940385664073
2245.824190214307 1160.7495016485725 3446.7999063511925
2478.53603719589 3563.238074561616 -1743.6809983464368
2268.5751987422645 -227.55354090254463 3541.697387697418
2505.883316499829 -1499.6124978402147 3575.233049232096
2429.777425844008 -1768.068321231903 -3057.6066476013884
2700.1370859741223 -216.51541335491285 -3880.9650959239184
3119.618640463208 -1343.7552297552509 3385.0385348626996
182.31053141688105 1026.2443438923463 2834.9687029364127
258.79651759070487 3620.3057181719532 -810.855416810825
349.05305547658736 98.68019631689421 2783.251195787915
450.8956286676663 537.4452408885755 3089.6033099811084
534.073554467577 2815.10081359264 2064.531038592071
472.9108237758347 -2857.358103003166 581.8596662444895
691.5142836598676 3201.3496057030356 902.0181273483463
711.7848075283999 -2102.4190104014974 2517.5850143942284
820.8587349957672 1632.8393490132737 -2800.785543434896
1026.613545118967 1088.9636639947425 -3626.010774735666
1026.6409427467631 3360.5681540106348 -1150.3415502578152
1121.4840499648676 -1330.7183968254806 2996.8365901981083
1274.2829451504438 -2653.899273310986 -2481.0295538585233
1214.074774754068 3287.330191615842 -265.07397324322955
1238.0439801786208 -1705.5214303426355 2808.7350623798625
1431.6468237191955 -609.8170681012981 -3664.6075019642058
1422.7682829557007 -3091.2333306381142 1714.7890527852085
1498.8588524531528 2829.3043322881267 2301.227062959159
1589.5881867582455 -3620.796795182281 831.2975207455644
1627.3647558168345 -132.81878415515692 3657.589256679261
1660.4369752928064 -827.0709386159157 3503.705704321781
1699.0720283399694 -3528.224464070361 451.53198240591297
1763.5518578130734 453.5487144021434 3601.5543260742525
1982.1887106025185 2855.140266065981 2819.9899044302765
1680.7427948398501 -3226.0156252936113 895.5038723319234
1950.4028632639422 2322.5223644056773 3037.9048482194867
1776.3146151404633 -2711.3564885357523 -2099.1872217777704
1975.004372557967 3754.262420909949 74.42227451084958
1858.9022804541669 926.2038375394069 3356.556338172693
1893.2701949381753 3491.345516409705 -159.78574731762473
2068.3517934585143 -709.5262268344322 3696.5211393192512
1808.872883864408 -3068.2783944779667 1059.3317204632892
2019.192070240728 2860.773335008876 2142.3006151570307
2227.503165075672 -3737.8573777209076 1077.275370468192
2227.1183209361807 -902.8872993908102 3679.8526498487367
2139.1379952290495 -3548.9549376892382 -17.884357723326474
442.7092923411338 64.95002267109645 727.1048717723078
2331.9748164306448 432.3314432086515 3797.469357771452
2156.9051131203114 2392.595610896849 2544.9037786755575
2325.46285113262 -3199.02818291323 -1902.4990630554537
2477.554866446216 2524.8171344030457 2998.6160871016473
2357.2237439450287 -3477.8555270026527 -1097.7841014047794
2518.9364283818563 815.6071611718235 3767.7327345029717
2484.8042982460206 3645.098602903801 540.8152874214626
2652.2056584124516 300.21185448700453 3806.178771737538
212.75724491958218 1043.1614371432895 2866.0624933970207
258.29966576687724 3166.515849120295 -808.0850062152978
359.88573431174325 -2531.5651914679274 2681.8877085642407
382.8168053668256 3429.288871007174 -1038.203659782772
593.3799655938851 -837.8156762257634 2728.2560167019456
750.6009811064167 -3300.465679495323 359.61965807429635
890.3944506643766 1695.6090822678766 2942.4013730507077
1158.747614632813 665.1491305002837 -3610.2378916346656
1247.5785891093853 3526.4949281005124 1532.2723393970678
1261.0282684417405 -471.7108374716369 3656.7004096332266
1367.5827132235786 -2724.532214777432 2525.4997942268737
1392.5169052769882 3692.6126203900035 158.2025149498952
1522.1809465738218 608.6620932497918 3732.7006920245803
1476.6657134258783 3138.432505602463 1749.2542433213775
1539.808594659916 -2647.6630389863917 2542.856942886356
1616.6935115163963 3620.8412420552404 -331.66956422298506
1659.5145103065327 130.84777702033924 3595.6199547851043
1787.747711088672 862.1027704857814 3709.1296570921786
1598.283667929586 3338.68343456937 221.15362021019476
1689.2770324480573 -1482.064692671339 3021.0443966842013
1747.4059125372034 -1805.0217801289398 -2911.936189764493
1732.8003463531204 29.317411523885408 -3344.871520609056
1904.5248556677493 185.20042801107445 3616.2607485446224
2030.8053632532024 1208.2887621476457 3607.000730145159
2215.6201995814904 3462.285358902135 -2066.3020334723365
1971.1698749496084 -830.5556098830984 3388.701577137136
2345.8667536614803 -4013.340003577165 488.8261610094543
2000.233213551286 -2247.502384892308 2555.2185874995876
2286.510238292363 2704.1319109592105 -2727.8107720536796
2154.422573735376 -3530.908183130138 25.4637449058723
2304.220041638125 443.65137995390927 3661.218028616295
2454.1697822476162 2715.1042083842894 2775.949952289111
2356.23469798832 -3604.747086039749 95.04970114596759
2517.1708128500395 -30.928402748186652 3732.8718748308847
2683.037756948547 -212.52494246167845 3933.2625324063556
2793.373882139666 -1443.7523070548737 3712.12449627888
2718.7283245625604 -2206.413117652573 -3079.0721255356543
2730.7370197135388 2076.4129504667458 -2419.0604083267503
32.14151934042942 1186.6569254041324 3242.6924524830306
151.06553833774612 2590.1838507326406 -1416.0690729635437
211.93977201199604 -3440.8177007929485 -667.6814733912643
246.10083936927407 967.6076400988842 3392.715646030812
302.8776986593249 3805.3536437926664 -451.1182169607865
383.4578605809481 1258.968986766323 3360.9400605129185
351.87762271357286 2455.332410537405 -1777.1617128906914
407.83434201824605 -2961.796359690876 -1347.6937054545715
469.22011176933165 3129.286916561035 1538.4187966350162
512.4822370135931 -2313.758087863807 2152.236862161045
740.5814426928588 2782.837400570206 -2223.4342810138687
833.3836751059996 -3377.391201714807 491.729265530751
1069.9957122884339 1402.4077819339827 3426.08470607062
1148.3311964135587 2326.7292462042305 -2796.6721321702857
1392.247058253452 -3007.3973455324276 -2293.2695450130823
1332.2215530544438 2971.284599707626 1767.0078742157016
1456.0092978481553 -3289.389795176407 1685.3280913191102
1375.563635634961 1726.8869024052356 2867.1014328588462
1455.2326845665661 432.8126159396624 -3373.3476309866833
1508.2143353732151 2370.0510986316995 2516.6856756207508
1599.8316189112304 -2962.3559942266093 -1923.400884753274
1566.1571334537318 2992.338213446012 1474.7230303859533
1730.5982453403735 -3161.552781506474 1769.3820982898742
1663.1022647891054 2332.3422071769587 2428.346933331585
1757.606764332517 -2760.552705906877 -2062.586909177458
1852.4645855183135 3556.0480615819515 377.22431485688213
1999.8414539291525 -287.07617767137765 3734.983703875238
1866.1847844240385 -1654.7716936610202 3021.5485503063223
395.67495770899103 -179.29751961366878 -692.1541731871491
2099.2064551809076 -1159.673626324544 3584.054419286527
2137.601366382386 -3356.1297946871614 -1634.5280056374413
2251.388107581806 1561.5806822430195 3444.5594453928975
2120.254444556905 1404.6464272605508 -3178.4577100197776
2311.8960044438722 2383.259184320242 -2887.4922788387184
2271.1062503672956 -3093.5621181336874 -1908.690237112406
2336.612331951954 2858.588570193242 2344.4147214945897
2462.5523194557577 -3512.9967957238355 997.9767097653452
2542.7214893853584 564.6772786281265 3690.044521547285
2579.0587682585465 3125.0719571088216 2070.9722989195293
2548.6117719546937 -2678.9574883125442 2455.431281020535
2715.5342285251454 3698.50431273312 -135.89278382059757
2975.189716021143 621.8640990726675 3581.4117387260208
48.113673448694605 1189.8975937489506 3234.04695642943
95.42599009000497 3587.17071865192 -1987.563139939526
130.86141790374882 -69.96702814134129 3124.2166402112816
261.16823769800516 -456.0649718928076 3716.1190429549497
257.6673532435801 -2329.439568913713 2280.638352474827
345.6651587718153 2474.7421056135936 -1868.6499165716402
452.93802587197314 -3109.1983983511664 -1289.5120471288901
881.4869812870373 2727.812410335268 2364.5590400793326
1054.6770270503769 -3644.701760806197 177.05952325759756
886.6405163705223 -231.94992848002394 2966.9471230000227
1053.429790338964 -1244.9964659654777 2905.4956203259835
1280.8654367546294 -3086.3656599532123 -2121.172320454322
1305.4998959124557 2907.3366616400253 2323.935785662726
1174.3709939795378 -2915.1311502974145 1103.4941669830762
1498.161082174387 3538.0588759397215 1394.6140650316681
1360.7862983516898 -364.80042735368806 3361.2619130622006
1484.4744104910303 -2147.488417585147 2904.2791698350284
1385.0597471161348 1845.0257545562029 -2659.708436093008
1523.920356800301 -274.2141480678239 -3482.2199242723655
1738.5235506130664 -1800.6784837525724 3470.685378732929
1596.2079912353274 4.173040676963594 -3523.9975291891888
1573.668678458306 24.413506192083062 3351.9110937964047
1784.0972802501506 159.0987273744663 3731.609919987327
1874.8062312123004 1057.848120214485 3711.1774889593576
1653.717369324005 3221.7473747698064 -910.7402775565939
1852.9335889348527 -2263.5256246835206 2915.4644135027747
1991.2062704451964 2824.936933394817 -2694.6145034757546
1948.7060453601246 -3617.2649521613566 801.5106149422458
2210.1251098007824 -121.17669073855701 4020.1741516533402
1918.0962619412487 -722.5449331299044 3365.307240001766
2103.9371207544687 -3546.810981866096 1135.0365011373249
1984.7110463116396 321.2949796530723 3451.0759968522475
2013.9756373878304 1845.998030087137 2939.410191333358
2273.553355867286 -310.19618338825467 -3855.5417683914875
2152.5699093114254 -1863.4388585646968 3098.8790909603263
2206.042564817785 404.41391757564315 -3637.5884021245615
2330.754526102842 2477.9189578816804 2907.2869893030115
2250.14664535082 -3373.677628244 -1377.3290313813684
2321.714120045356 1429.9714299706304 3429.845143657036
2579.9436134779216 2456.7714799480495 -3259.907651347484
2441.895065704502 -3442.6612239825545 -1556.0744509460142
2094.9113153248527 860.1500183690079 3053.1501675973614
2724.855948225826 4031.229995515746 280.83041725233034
2458.9404170053963 2467.676215982144 2634.8954615081116
2590.7536199684414 -3460.6247465410224 -1485.5411012920124
2669.5721176739266 925.6394019179737 3729.8579996585577
2819.6526370802367 3907.0847827781586 -174.95570920478508
2706.7881967066055 1622.9097302922087 2732.370400828349
3277.3748837157864 1157.4168831334127 -3624.6946297085133
16.345531209242004 1218.4380083252745 3293.8659383569843
182.1291279030334 2558.662685584541 -1589.1473378504913
229.15001624945162 -3185.5578762466857 -802.1508692775353
284.2244792220596 2380.158211839956 2695.563556403525
332.0636805346407 -3189.2109115070916 -1991.6158670597372
362.2277239059628 2439.147059672883 2798.1253762633883
391.84656308353703 -2615.385032005264 -1280.431620338558
509.41428965865487 3504.434335480052 -521.3338549418063
457.8282769270169 -468.67800646185236 2783.822897789826
571.4513567092954 -2370.319502343386 2220.605650900358
706.1426108833577 2730.021878550982 -1770.7333347042882
933.0241944661944 -3679.9424685519884 192.99851851114147
842.495584966886 -432.10188068319303 3076.806293010668
908.7503397762857 -2028.0124354807504 2158.8444968397876
1159.3789127067073 1423.4182385483182 -3385.9724627007827
1255.0413478998967 2363.1519412854145 -3062.1784569810716
1061.7612502435748 -2651.0745210766445 -1767.0313759801325
1315.6717113292912 3737.3328467013207 -319.91278962774385
1335.187752587327 861.0588866060489 3523.3090403478304
1386.111930333885 3670.506160038691 249.85101384229395
1382.7361026642384 430.83890510183505 3483.457741648469
1501.638455157314 2445.3850567064405 2614.6686070010555
1490.7632004542309 -3085.1218446156568 -1468.983391286398
227.27815806644367 403.75749001061047 321.303422422376
1613.1364300829168 2350.209382542561 2763.855976386779
1543.2124364752442 -2791.564965088545 -1953.1548954678917
1593.5582637879572 3410.9742305222776 549.7997805683067
1823.7944006144016 -1216.1457244400672 3551.5497429891284
1848.4154631422725 -3135.5677733709845 -1930.1136595022917
1848.3203694433284 2585.7006599163046 2458.6126366933827
1942.920413376599 -3620.7397621728737 -732.0379598219758
1969.109344377759 -131.549956784592 3632.618836166268
2019.4454944102124 -836.3788411778839 3578.5605254110123
2050.167387472938 -3656.342530723162 407.6767077292282
2248.5686736312528 -390.74787475379765 3960.7721593617816
2059.2335168796917 -2237.0562663956466 2755.1733631443176
2337.034163114873 2747.2307405351917 -2874.2475986348954
2238.2917198592254 -3747.2321975966825 309.59789614068114
2145.1654339307374 -904.519564859855 3442.139648065682
2332.5849615945463 -3822.8810621640837 -30.15600350194701
2325.46285113262 -1411.620946933669 3443.923678332331
2681.0683019042976 -2660.239912343886 -3304.1924291379573
2239.171293658538 3494.568880318719 -242.8936819021334
2308.101450405182 -653.4048671854088 3510.7126170534693
2613.0289953564316 -3634.304103368714 1668.4827491578471
2155.671668732761 -195.30532896725606 3258.1515969145744
2750.479438954008 -1363.6470027212486 3844.3085011441726
2516.1567591185412 -2549.1022250311808 -2673.520870750981
2606.5760663994756 3658.351846304328 -986.3988892135463
2848.4908128621873 401.6871942953694 3930.5277505621452
2851.788790340747 2540.169874588745 3009.2160122250775
2661.8609778088176 -3457.9521256470443 -990.4423742616679
3015.93705869261 919.470291676252 3632.4349110100775
3079.557883774763 3810.798621773738 -129.5486946571844
16.601511908703365 1243.356492796915 3343.284856517577
213.87334849948817 2531.741866350002 -1729.34644365165
256.16561100074944 -3102.250143405897 -938.1498002654446
351.6454368853224 2312.684391410594 1956.1012002771765
430.3943240598208 -2678.8149109751307 -2148.5592085714798
717.2953333212697 3447.6419395078087 -127.53453237000107
897.1144513153948 -965.4985372590929 3544.8679206072757
1048.4452522535078 -3718.5693646596214 -426.95536091603094
970.3589253423357 -669.2114888815956 3187.507644406344
1110.0130753918304 -3328.437904233348 1418.2471990674674
1149.593792561347 1662.274444097392 3240.5258327161514
1053.546860556092 773.0076449787704 -3153.643635670393
1411.3895349930553 3740.2106878456566 842.8404419136048
1254.244799152352 806.5457125710761 3229.8181084285866
1413.149098944358 3618.3289122911274 595.4703036072458
1339.454836117842 106.44451866863712 3326.2972754168263
1423.141402195942 614.358389218341 3268.767316527294
1664.1510101585109 3226.808908780878 1756.6958377056512
1719.9359669074654 -2260.71993752478 2965.5667863121807
1582.588638151238 2427.8349552133122 -2338.6445711660367
1627.0344825939346 -2978.214346129541 -1531.6789182162786
1773.2513010373889 3175.019105043342 1675.515945197114
1890.5846372063547 -2544.180136326573 2776.6712866166386
1900.6410973900147 3534.1534882092933 -985.5557426031695
1967.2759630883415 -422.5627612605405 3660.6919718539375
1978.8600921628483 -2456.452128294017 2703.7477584641274
1905.6971359495556 3159.380471573669 -1430.1535007959599
2057.9690573355697 -2568.2443087316433 2653.7464405378905
1954.9346543877489 3324.1304887169204 -778.1725348421173
2312.2134586547113 -1845.4303630332713 3531.941643798052
2116.2571978988153 281.5840249438321 -3543.8306162818267
2274.755366017028 1780.9913676547906 3327.333128548916
2231.6218376229044 119.87723429960721 -3612.011274718931
2437.9247837505327 810.4536009008671 3816.905678790978
2288.5781049494253 3576.8668086221746 563.6176304703561
2351.673191370186 -148.49940242231162 3676.001758361959
2425.090070546133 -961.5939454729573 3626.684585682873
2359.0867649244556 -3551.3797488814744 -383.2569363162998
2439.344878536245 309.7851532715523 3641.8481789899647
2454.853535425886 1855.0386969958802 3089.9267681690817
2622.3985128305094 -365.6202811486839 -3794.425623202115
2757.793730722219 -2364.8999765042204 3188.7533772824668
2779.016914653177 3228.432771891723 -2137.6636399058502
2702.52956203589 -1916.4834327486556 2528.8377274945756
83.39593964461785 1255.1432544339314 3357.0331262662567
172.86564651250217 2749.591680104503 -1962.3021155520614
260.1218905918432 -3715.040700633898 322.35631315920745
311.65103492007256 -786.3822354092914 3863.787258614621
287.4647021649616 -3191.2111756847225 641.2458437954429
343.97972165100185 2306.979196864522 2665.233945685505
457.4060816534071 -3048.8398161486593 -2495.631338051878
412.59700489368964 2700.4664478355717 1882.7493099492374
432.1849875024076 -2824.999063841614 2.2998465177229623
660.4063036456865 3243.2565104457644 719.0070983315555
676.1288185393533 -1896.4935129371609 2641.744945180603
910.216731907962 674.8299275063471 -3969.040257913968
871.963991738507 3298.7680250877283 1367.5417787617341
1097.196052428128 -1744.4687391960113 3006.5602967457476
1063.4275422244968 -308.7888178266753 -3176.024317599789
1282.5755374712576 -1924.593560770695 3218.45298642686
1306.842162030607 765.9018648078336 -3466.395005403147
1375.5625598393624 3551.4597587585436 846.719895785323
1427.6454803576069 -306.65345020251175 3611.0025839756604
1475.843745313757 -1831.4916898616623 3088.8378380820955
1352.313513806475 177.112690007544 -3219.1314193487488
1423.141402195942 1011.8371355962773 3168.3531386239633
1480.728797875815 3329.5490505934804 -658.2849836446625
1578.0898528558116 -1584.1456401851326 3103.0208814447956
1739.7689641123516 -1387.674293566403 -3507.4697511133268
1734.419604976786 -2393.2540999887246 -2730.65849437222
1861.6889033442694 3295.8212211102627 -1954.9389961017346
1865.4839383586866 -1881.4214571914956 3204.5138945586473
1872.1496118744924 511.8487849702918 -3577.569960367573
2012.3479971789031 2981.1142317937506 2398.173041504044
1816.1934400072016 -3000.6760682167246 1602.9807028256507
2161.7683197305514 3404.620582730675 1971.0186928709327
1930.3560288682409 -1158.469021375736 3264.543693460503
1970.3954732713075 -3096.7698993567415 -1500.1657209915306
2137.564462154067 2835.412788855449 2352.0821237352584
2006.6988513265032 -3319.095858760762 799.3739302461398
2161.499264576821 1709.7082380982192 3203.288738246848
2310.9199982271557 601.6979761403886 -3786.4911917907007
2258.174062032917 3172.4597962967614 1819.1063302843813
2389.816068130648 -2596.609933963159 2808.601404764271
2177.1674068515504 3350.6970590706565 -611.2816194973093
2362.3889580444506 -1507.7603618290532 3243.6996919100143
2798.3549084724523 -2026.1325628598786 -3621.7795125764987
2519.562493768133 1422.2984642927884 -3414.625613221803
2595.5691471431037 2310.9450090536848 -2982.4590802104667
2723.060812199269 -3050.4768689744124 -2461.907973879622
2482.68730674728 2898.1072937317977 2032.8733639896407
255.72723274596336 1289.851483051637 3431.594258019076
307.30388632240476 3022.1776334392334 -2446.014380975638
446.4933477256355 -3253.8233743609894 2050.4510353729656
362.3383782344036 1642.3697748689442 2379.181061331174
506.10733830044177 956.2403670815097 -3387.6251800286022
647.8832123042598 3571.723897922342 -351.72346667578427
837.6146964797911 -152.38369941211596 3085.239084439564
1016.2357980567622 -924.1291742484275 3392.3798828113163
1161.2728069283899 -3675.738065324992 -154.88923500646246
1069.092934959632 -422.82476224188696 3180.01308494715
1265.4745303049742 -2489.3091903093573 2737.396528645671
1399.6095493071457 3547.8274308910663 -1366.7935179158906
1272.3294342858194 -307.0791417154343 3363.009277525608
1383.090296185247 -1832.7647803486261 3085.7566754223594
1484.3731153387037 215.35690172897935 -3761.840693713344
1317.7208934644875 1201.8222869242022 3045.4390801085287
1445.019941109209 3039.3386259360136 -1767.6755123306382
1451.8096144470328 -2815.1127398882986 1894.093255813609
1531.8885999880467 3313.972613464615 674.9144517688985
1691.3395523329782 -1755.5169314408872 3219.479663458735
1576.4855078350213 -260.44523613543726 -3347.8847469670095
1675.1313514433823 -1513.9114722917386 3097.866371240609
1869.569965021314 -1812.3621229828443 -3322.885573590688
1827.8328900871848 78.55202950417902 -3640.1525488172574
357.7720954662016 95.12236755700378 689.4691691369167
1787.7112093466721 570.3062026825941 3403.549887276777
1917.1480527227136 3058.0147280391475 1983.575287982702
1913.8551069289194 -2865.4353475902517 2066.729123223538
1998.0146442654511 3485.482893881628 1035.3284485894073
2229.793656762125 -773.1224488024192 3816.479749606665
2037.7650355822702 -3426.2422482437432 771.3676531652455
2288.2479871745977 1162.5950475082705 3715.349479592632
2186.754760972384 3253.5880718287954 -1605.1631253095059
2372.2443972481283 -2210.0768055509743 3198.7660923496114
2213.7145234859195 2352.3342906522835 -2705.3185367016245
2382.3186059561203 -3132.3110589941207 -2174.3036654761745
2117.720381356191 2413.841460590735 2269.215371694187
2462.578136668648 -3344.610352120616 -1824.7415138828871
2620.2166220003223 1728.8104994251069 3618.192125506537
2752.6380776561937 513.8124314266253 -4114.038500708453
2405.3075081380643 2815.8635550889117 2249.38401326275
2664.168733343291 -3870.4908948833117 793.5371652451954
2624.4623101910793 -1734.885455261073 3397.704733658235
2542.44963587993 -415.05075154454084 -3636.390088211427
2783.5855598494018 -2581.826162709001 2917.7028062418067
2708.4916505748915 3112.6008505964437 -651.241848214852
16.08024212070932 1221.2555852573337 3231.9591265171916
95.30964530813469 3468.8401023050965 -2178.156180038513
179.1600439432416 -794.457808450847 3409.6682816062144
220.08167466271533 -3101.623764770949 577.8884163989492
297.344964080475 2874.9945359683416 2426.3244667917315
340.80684659127087 -3680.4047791902644 1160.388582033389
336.874515021379 -441.0185089173014 3122.0044322185645
416.8752240497245 -2156.0097115566787 2224.6856235597174
664.277852162741 1859.926922706929 -2597.8254064101257
690.7350738911271 -332.3103474825768 -3165.6056028753815
810.7309282715752 -1754.7484605451273 2678.369250162215
869.4076452089706 -237.32143594719295 -2998.623440187174
1055.5669857193416 -1425.920778027899 3243.393120605073
1165.1637746402607 -2181.4810638648046 -2852.441299658817
1267.0484222931798 2348.48163634686 -2989.95618759566
1418.04593872335 -3225.547062417112 -2271.314850066441
1316.4107324236463 2124.36476938576 2774.006187194359
1444.7493787680387 -2010.8294665769981 -3164.105854162541
1341.467238215375 1198.9437960088903 -3109.891119317812
1450.3627338379972 3059.4511764590975 -1758.8631268131824
1422.7814636574328 -2746.0941713513207 1991.1380670536896
1569.049766041046 3655.1397613811855 294.69021831457303
1603.7990913200333 346.5914225365623 3590.3096504095693
1781.4659561658748 2236.6699859521245 3235.088310068355
1566.8067791860176 -2345.512592960492 -2457.2707779696866
1714.5101472940732 2975.0459777238816 -2118.0664367363347
1805.5924282049716 -3352.760876001913 1745.6788101912919
1624.6053478035585 1398.6153041176117 3037.4678979518453
1894.7610002171098 2472.8277959529837 -2932.5788466062263
1799.2180934008431 -3305.960672588902 -1384.080933795252
1970.8045668545694 1897.0831647281216 3366.239959673869
1808.9503167309706 -588.8645240715006 -3441.99107673016
1977.1082387337945 -3218.2487779893013 1942.409792749812
1996.104430390043 2310.952955707356 2939.3226152478455
2056.2625959409565 -2911.9929120058764 -2350.0768669189392
1859.5837379715126 3111.1794528727587 1206.7027024177755
1990.378753066056 -2654.0783405935776 2316.7643734294697
2001.2105944542284 3437.9281400461105 -276.13602423279036
2148.355097128989 -1020.1526903480558 3509.7455019382282
2107.795313980272 -3420.3882785856326 -727.9787247674298
2346.008155200374 1185.6919442075728 3657.6166575300463
2498.9965624958204 3554.238175991039 -1935.3552615289766
2203.6290907965476 -281.4001462696826 3515.7563848593663
2518.004741816766 -1878.9652836003195 3513.082046156163
2224.7228205809674 472.8775497931445 -3409.3622311074005
2558.7950852252525 2877.357929211062 2656.2882650808497
2371.2701377398844 -3384.1307584522397 1082.3437576377798
2553.5831417795607 1393.2840797379047 3521.3816142458772
2742.2975398514473 2623.834507522852 -3053.5501432156493
18.86810464757035 1439.6036256025875 3789.7832921094428
244.07790163069444 2058.61842947781 -2829.3269803637604
311.25583959301184 -1717.765903691911 -3543.6032932755766
308.16679743939403 -451.6992237576732 -3125.5290450188936
366.97570787628285 -2076.5397624339344 2064.2593381236816
419.2973525303233 1446.2312274271108 -2760.049136666714
550.5666925444235 1860.1733083639235 -2619.7565273991427
631.9975275222105 -367.0073149530596 -3481.710302533935
687.1481381526946 -1975.184941468431 2649.8432872523517
825.3257608726277 1017.4260632216863 -3223.2350528432175
926.4411200954696 3582.423507942213 -744.6628832854561
827.8529195056012 -93.6414770758966 3051.563578523483
1148.646845450506 -592.0965666615841 3590.5072978268076
1073.092035713845 -2766.128714901414 1648.3118432498911
1309.5951287939854 3803.5253563610204 440.9488218816003
1333.910828628444 1322.66618978405 3565.5803385146355
1222.219924436837 2400.6348468580095 -2181.854333371277
1375.2512063820102 -3025.226871674778 -1742.1490679321428
1516.1437402812232 3176.253889596108 2025.2654711976884
1380.084460251628 -2263.2083736066643 2480.736152362173
1505.7229688296813 2545.0054038743615 -2430.2897963515165
1416.6076808831788 -3070.134654001736 -851.3925101254067
1546.8360641511472 2726.8571879002434 2055.839214723947
1577.424450960593 -3356.309326978129 157.44110530487484
1782.6642703864957 1539.8706415454465 3399.503258905103
1810.50439775909 1532.8163366525455 -3140.9392031828743
1972.9005063821396 1686.4696619098547 -3350.4956468346086
1900.543399889958 700.7992837865677 -3490.3410096786006
1947.4598182829368 3331.958329816518 1207.4724379323613
1916.9817376751585 -1551.2420474294106 3070.3824045690158
2110.716724795568 -1571.5580868293077 -3389.380648396017
2265.296277902148 -1535.8239920787125 -3645.707155731986
1961.7550072049132 -1504.2417698943789 -3027.9395135479554
2070.1796585740904 -1738.3708806510786 -3063.094951401996
2220.3182514367127 -390.6677940750067 -3617.9689985781483
2243.3542158505843 -2289.61012422436 2820.704606840162
2289.849905803614 2764.3738310734257 -2406.3379484345983
2502.2040092501447 -3934.0384211106584 443.8723929522494
2306.8087584699224 -1964.8655595621528 2979.440271736708
2425.3294907252293 1031.2941562932638 -3484.5929982130433
2599.4357041352537 3754.228280895584 -875.6683247233447
2567.2427788624204 1002.3286757005492 3633.2765138189498
2623.7246652236327 3716.9225162219673 -670.9813770904228
2136.296385300044 595.1973490643771 2876.0579124326996
53.028360928073745 1354.8909214159366 3548.10859347127
72.48980830481706 2729.8693811739645 -2776.8775921399333
175.219648803673 -3419.348290497646 178.4188002168674
212.30257903969132 1088.7560836514667 3337.9231852024277
306.35541753745906 3667.561004524163 -1253.942693305285
313.0759966742823 417.0449020533427 3520.3832958459675
372.8218921877922 2668.4736407238784 2994.556633086416
358.71473951463344 -3670.4366253539292 -202.16572226878534
422.62366357883394 -413.493802082707 3346.5514900624476
489.8082038544213 -2404.7619875087817 2732.5299236115998
473.55953546825697 2540.841104244872 -1438.9324108448247
597.070744459596 -3027.322354056383 -863.2632070408872
636.1529716033103 2691.861446494354 1730.2837781350559
782.1637808564107 -3761.6204834891523 -53.4353646458652
668.6003024375001 -857.6116451101269 2959.2335605983353
808.067048571145 -3073.569518035155 227.8034631105202
1010.8774435635693 2696.996412806002 2058.8004636951973
1125.6600258741366 -3668.9495859085646 -19.233721984433352
1077.3101631004606 -409.728897277114 3388.3168728346645
1284.454760567279 -2401.1801912794745 2764.8829430930828
1323.50954280846 3192.490902396812 -1834.42793211224
1369.5343481282066 -2372.8254247868613 2753.711042118445
1485.2131517129958 3242.5480096880024 -2083.074267727479
1363.8268910038728 -2022.4369055380178 2809.8386009018036
1490.3849934328032 1401.7584077775025 -3427.430869649318
1468.501740644066 2242.1580176504717 -2688.8154313536857
1590.9046711236704 -2495.1640810179847 -2564.41810335165
1558.9658268026906 3166.2908526668207 -1182.7942493597175
1770.84673482838 -2590.3025159235717 2741.954936901774
1648.4108687492446 3331.0023977058063 -645.656275798638
1756.457277573525 -1608.844555371015 3171.238747974211
1850.9445582596356 -1188.404066017394 -3428.8973119464113
2002.6924182365212 -3386.4873235232367 -1864.8484141121025
1891.9016586127848 1309.6128538070736 3350.122859410277
1797.3878417181304 2505.596676505162 -2175.1113292625478
1931.5240579188835 -3314.6049477221554 -1169.8799256914394
1922.0177456516387 1625.3551281524765 2988.6158514249446
387.92236595614486 204.67816619004336 -650.5619480764926
2134.1656288527065 1303.2618014124332 3491.709850056161
2196.553487816972 2848.9868271843684 -2418.3554450348997
2353.3298971671893 -3727.3353384399065 991.6754886640433
2277.978924027279 -803.640832685037 3556.3292046773877
2432.048756654346 -3793.709729409364 644.1044084500028
2195.637252037637 -1126.7279524686899 3204.698600668355
2719.686253627914 -3799.7659776838664 -1587.357084853994
2797.7383668464945 -1432.1393742972623 3939.776746541287
2544.0837832451953 -2236.6255667125824 -2991.2758271893986
2619.6467830164165 2629.080509937511 -2754.7776084952334
2145.653737866293 -2914.5298826955 -362.60800166978356
2995.8147137587125 3464.132293590271 1361.275671017818
139.32029995704715 1192.290168137214 3106.0220789561904
169.59051289000362 2892.0445994088436 -1618.2317618407262
190.12804600671592 -3216.458716427716 1120.3701734320541
257.7026116489579 1810.6777904493242 2288.2678906049337
350.22502723558745 -66.88166559996124 -3588.376769906774
428.26365908922764 -397.9629982723362 3393.7463741426072
469.4892371560648 -2233.169626964498 2680.6854379436695
528.6331299407241 2116.41422228869 -2244.552480940056
598.962523941358 -1740.6278719364911 -2824.772311432878
637.8730674288856 -317.3495039510794 -3051.542772490991
807.7131585073967 -1806.7775310116772 2921.434571136473
859.0224931212736 41.613532891209054 -3517.7538734084724
951.2542465697402 272.6285068066127 3747.095234615261
980.6590510658644 1603.71461738173 3112.0893987795675
1100.633082764548 1279.1862325389823 -3586.718079593478
1185.7625185331583 3139.75982315219 -2445.875763999334
1088.3578793936092 -2481.2874444296476 2394.142146597772
1224.058089185389 3408.629432393517 -1368.274238820803
1266.7158144641535 -1155.2693537251841 3329.2534779351654
1401.0820475178843 -3434.46892403147 -1640.1399970313869
1214.307896565945 918.2454466634235 3089.4262088099613
1358.4266631521302 3523.212869939699 -112.23222839839362
1290.754705357548 -428.51291972017987 3178.242545438105
1514.8872306395178 -2506.84077467 2702.285205238691
1529.2565759014724 3372.816198250857 -1182.1957929279893
1627.9147333994797 -1388.0098718121722 3315.156798064302
1796.5005607681892 -2565.5449528593685 -2930.7002738010956
1542.2140837516513 3194.9631287634147 -763.8295659650073
1738.7186345677505 -2364.169010732892 2767.725580452343
1890.3526938707078 3241.5315699083144 -2152.29042679833
1864.6305463554716 -2210.7176766593325 3059.9595347170794
1880.5443576672876 2461.13642121434 -2824.0615283970483
1949.382778084411 -3494.6472039722003 -1547.6191132734443
1865.933287762015 658.5930133767467 3541.2793228904347
1980.7900045414922 3436.6403250019084 1540.2140359608393
1712.6245019233106 -902.3115056852912 3078.4895560498403
1982.1103414245447 -3658.970223305045 -14.761604487006135
2000.571057631924 -368.83962208727564 3571.00228691869
2142.9198439907896 -2276.5447944854386 3033.8412612892675
2259.5700486860155 2916.4734642030035 -2658.0253069900846
2016.8767835091035 -3230.844562183579 1282.271194018176
2177.744359743613 2225.3606400589915 2962.2280502480285
2206.645308687954 -2475.0342152891867 -2697.6149897915084
2382.0067198705487 3606.9149053770857 -1493.7807286776094
2335.4594673653232 45.112029265394135 3737.727772967897
2358.065344649257 290.1546776896461 3677.5713810903544
2324.0835178525085 1706.8758815401955 3077.326067386487
2453.36026634726 594.8414883149342 -3627.552839557168
2811.166653836543 3591.5464503454346 2116.9211357561508
2565.300119188082 -55.0165182137095 3728.594129524376
2100.655076862965 -276.88541008566966 2874.6962395497876
2493.994034302135 -1559.4156065843317 2971.6929461068517
2876.3534856330184 -1368.9498498113862 -3066.2909693473944
18.33752647050498 1418.387423993002 3675.836927212427
224.89487135105998 1992.0350333963866 -2534.950182098547
303.48281825095484 -1022.954852399089 -2936.9479685471374
430.2403397481032 -3620.9930974458152 -789.205289040666
368.98103961331174 -107.84363519983091 2942.0240907149087
421.0466675440891 -585.4773076321458 3073.7367034682416
385.3713215994919 -2148.896279072052 1314.3841834830064
520.8187959943873 1786.347862395006 -2561.6577278232926
620.9858596619264 81.95875855128942 -3439.023518660018
909.2238486643431 511.92466240271324 3554.323302687006
780.868628433193 2138.2772751372568 1719.6820330024934
916.8446959911153 -1739.1235960029637 -2595.1541607052404
1056.460776562457 -376.0517913207612 -3526.0035522166518
1124.1260111209692 -2235.8342774228304 2902.7471615525064
1139.5308205337221 2421.2081134700165 -2543.9919951263532
1263.0493215389668 -3350.1156826039028 -1772.237262098782
1323.7390132116088 1594.2706929392666 3420.7275479983714
1414.0919449778603 1382.4051192710897 -3683.1117395774304
1217.0197711755454 2201.813199671923 -2466.1010996612627
1364.2208329134637 -2234.3575011827115 -2645.7542510423277
1481.9329046231653 2531.5249626135214 -2673.6688956683865
1493.927043780425 -3478.9841033080547 -1053.5153577095346
1570.3334173358712 769.3996873695882 3588.443133320574
1592.6832118404102 3489.347411574252 809.431060276332
1726.205634108352 -731.433517791871 3740.1505329398988
1552.047339405637 -3220.4169351331266 975.7764928034283
1765.9809926034495 2235.8444639623735 2866.046847657729
1737.9723882125331 -2386.7821957047645 -2507.730996392305
1910.109498672454 3199.208487222333 -1946.8153624020413
1969.0206626272677 -2447.2557891912043 2908.356942032758
1701.5017697004057 2925.323956141775 -1381.1968547687309
2177.125297126331 -3712.201644249219 1540.1038771567955
1927.677495072388 -682.5851393889557 3440.9506720505833
2149.917309288012 -3583.559650213573 1429.0781061093799
2024.8417402749774 102.82455184254223 3582.5246840096415
2216.6233295650195 690.9770867781302 3808.8307478211223
1980.902571605316 3189.3253674598386 1218.0310753331235
2325.7994014601045 -2566.6927543825996 2945.630204998561
2142.1517145798935 3458.238784600318 -819.4513461372281
2212.996509469898 -888.2644168148234 3516.548780526245
2364.3829596729665 -3828.1968359243783 78.42184273899264
2372.0059729011855 -1455.5344855486492 3459.2525726489857
2149.746688335938 -1881.309333135763 -2742.79988206509
2487.572239390331 538.4457610584675 -3768.729913697474
2775.163098043831 3392.7769868234072 2479.0861860132013
2799.7405651052113 -1484.3542744476063 3923.610249238464
2763.413094678918 -2123.673817418983 -3456.769954337298
2101.8201579303113 1540.1905446052986 -2430.008659718815
2442.814314080319 1446.0763877975326 -2967.400222527194
2933.5602311487164 2125.5630487333365 -2991.8024209261284
169.38581703859745 1196.9773269717257 3085.9917820233454
227.17877228188505 3030.7237576754596 -1728.5353640182027
315.1955520819502 -2990.757449153185 1947.5961799959284
306.60547104324763 2746.038956501339 1526.9034184836435
422.7489968123983 -3362.116756700812 270.73956916493086
419.8356033037897 1258.4795761627431 2854.9306745315625
700.7622577817715 2857.273049138281 -2064.368117044058
779.6688405665975 -3609.6100484584445 1016.4719858745865
815.0702336665182 -55.98464316784856 3337.530482217259
871.7809158894555 -313.6432630998976 3199.6644985860703
796.8606641759083 -1434.9580947735287 2354.133442743619
941.7576183626414 -1880.4206679919575 -2540.8540122149248
1018.2789931524283 464.3285059506206 -3286.3596940325424
1137.9147781943043 2612.064526984763 2484.581233702748
1221.9456350028465 -3721.7329468178614 -575.7255184290846
1077.757653260427 -681.9510061947769 3161.2811999488326
1175.7739583178904 -3036.973255457878 1215.00388708579
1262.2990911557608 2852.859489505479 1902.4283779261013
1387.9957464936213 -3553.6678197436204 971.2368541805988
1332.2215530544438 279.24542265063354 3445.7032655074445
1493.0398373497046 1774.8885571910048 3348.7117835896884
1383.727682263564 150.63152056923124 -3434.6985522766045
1399.400710886478 884.9034606934803 3288.0040853461087
1563.7173633593482 3726.706011782396 98.2155880955181
1524.7929135462502 766.612950905243 3409.8870338332845
1726.5184007750734 3778.2492629601807 895.8356472818281
1487.9521144177213 1005.5696945046795 3127.307882107831
1630.4568632389087 3475.1638466650334 -647.6582731906465
1770.2448515681547 -801.0905063644085 3618.382235283168
1772.2967430584276 -3593.7778512071127 626.6296802523691
1733.7359517106504 38.11679181248251 3509.7930295363462
1879.5403297133807 248.89097765141506 3735.7180409184684
1855.0547205651792 1507.1111675701416 3248.411446936081
2006.5623651953779 1866.3485112081632 -3327.3064533810334
1945.2741831253184 -414.9090412569592 -3566.9498857543867
2068.3517934585143 -2493.654294470273 2819.4652435648086
1969.3643781813983 3307.28356190858 -1245.4041276345981
2107.8918897784433 -1824.2754235851125 3254.5937041208936
2193.1457897788746 162.2232197607636 -3826.5628999103687
2018.6174711818674 971.9115571478876 3340.4833370460583
2174.8054334821504 3670.895933829842 -463.1663232484979
2359.730951468609 489.2417863215096 3933.6927275165935
2139.1379952290495 2675.380769956287 2331.895953027945
2577.4182485439965 -4170.147352311917 -179.29601224208236
2282.352443629087 -3064.175156686452 1988.7784213294237
2413.087877574401 3072.391744591014 2266.612663815542
2293.8818391173313 -2825.4169381389456 2147.6545638620623
2471.2367242905784 3691.754849248336 821.2613061939509
2701.428724056344 632.4136336479174 3915.253375705873
2939.3218371985226 3577.001812331679 1803.6335643849293
2873.220675974559 -145.26564771361066 3617.0841698244108
121.20679814571457 1351.6578285899525 3466.8230578458274
307.6990816494655 2744.7901757337777 -2760.7201761850724
349.19675341328974 -3941.9244823373315 308.78370350385745
304.5562301483055 -1753.9219810419434 2581.5496672382474
387.5178769370573 -291.3737891094191 -3615.27734966766
428.38285312209956 -1796.6806043774227 3223.0480613627187
422.79598255785487 -18.20288124560522 -3141.9472712180195
393.785542595114 -81.76227846900332 2572.7010960893917
558.6204225629693 -463.6315307452529 3226.863152304233
480.2360625704247 -1832.479846133631 1747.2955140771303
592.2186570019567 168.78319585864784 -2974.2147254016045
698.9991045293069 976.1234824055737 3217.1768597788364
792.8788074518685 3476.0928569452785 -464.5723300994273
806.2797817755671 -708.5333828904818 3225.0867345437036
922.9880106572172 -2926.6251842204374 1016.1048327247978
1025.3181642615496 2916.0174834844715 1217.5557629993334
1178.401688908123 -3287.649932281157 1301.7887396854005
1216.5656498094036 1844.480664124805 3041.404294017768
1234.7244105233733 -266.4029559542691 -3424.6539190199683
1367.9508377762634 -1666.2091670397263 3321.5061360281693
1227.4946096840984 -753.877616282344 -3169.579237007406
1506.827804185388 -3701.281547061409 964.9559105900662
1314.501050108435 -574.3276748771029 3215.105553768066
1452.8286381743612 -2979.1579522332127 1902.8512542092224
1551.818552205514 3027.3389855938276 1603.9621773295448
1697.3355747437577 -3095.582902462576 1989.9162027536172
1606.5316878533183 2638.2835189170687 2179.3448726189645
1784.118022102242 -3591.065873786199 -388.3167394385195
1692.3213128425107 51.735450300861416 3317.5966366003818
1920.8441507555667 334.3605366285751 3692.8941267717723
1933.6427512363562 1995.743599295506 3022.5637273465413
1867.2682008446038 -1154.8482791077993 -3247.7891637607504
1904.598117993414 -3128.755611921878 -1491.3230102386785
2120.9396783696666 2789.1631029809846 2589.6341797577293
1923.1476796584886 -3362.8653307139202 527.5914778333279
2144.4728414417455 1506.1003786085446 3428.802509558577
2291.3252065815445 1937.9761527096182 -3440.762914170174
2243.649333018463 -898.8802580714658 -3660.242516780736
2441.7154180537837 -4050.9922638884095 7.9169385660816305
2194.0820093889583 -2547.1557837503155 2538.3485602468613
2352.6505814452867 3675.236978770024 -1004.3570828551884
2478.53603719589 519.4240980642662 3932.8472645591164
2277.8336068041226 2837.7590762731115 2221.6974197738036
2378.520235142284 -3613.9635569319157 886.0634340542522
2279.7844873214776 -85.02201726924905 3487.963912740421
2392.769134748405 -535.6511893016403 3583.18389193183
2820.429947111948 -3399.953842212347 2509.858536018614
2744.687848983667 1166.5468292603555 3204.257869638867
3576.2607682545636 3957.4208963771125 -1986.455096124192
48.16952217005119 1258.8249059647878 3212.1425647257224
171.3816015898075 2713.4294461385516 -1962.9318991825044
300.8002382715389 -3405.0644527987865 79.82526095228587
339.97882276087677 1162.6136502717075 3284.293759730073
371.751680735275 3261.6070186972115 -1609.2509610328302
463.43391595456785 -1917.8445812096606 2860.5957705213686
542.1962422531153 770.1532898958626 -3691.517968270313
406.1773953341211 2587.1122171583397 596.5529111739037
679.871228974073 -3206.7353654091403 -640.115845948457
818.1185135311182 2389.1930973548815 2916.2743944203517
781.6123839530092 -2846.81027369596 -1715.997455003688
812.3842622553942 3218.3791985479847 843.1870103088826
835.5440547458458 -2039.0309253123621 2594.677799962803
883.9831371071929 1320.9224412927417 -2980.3966018114475
992.143490110052 2628.3998504415545 -2374.295311497459
1077.5105390089902 -3698.928780514792 -464.66103417367935
1021.3470226587627 -571.9443326335135 3279.5000656149414
1194.1003067708887 -3179.6643420995683 2049.5910986293147
1227.7860549258555 2533.637178987505 2810.57621231879
1161.738769098902 -3340.081172878498 -998.024928838252
1181.6795951901854 1514.1323538149597 3105.5479734067494
1162.7437278210077 1586.191135240785 -2910.880052919314
1307.9465356886608 1295.3036001447829 -3308.473603257545
1389.5027994214101 2844.5080364614346 -2347.364060069574
1389.8270570368754 -3416.382086225461 880.4075425152641
1263.3860368311016 988.8358310980003 2979.181884198534
1442.9650208289058 3468.8825853714875 -542.1942538485852
1554.0699654630862 -840.4825727562499 3608.408796809618
1522.8383194273474 -3539.8155006839743 369.03552825908713
1541.80777009226 370.53532658084293 3514.521243605682
1685.167329110875 2283.705971716505 3024.6961888339088
1491.1227886341367 -2460.6293688551586 -2186.908116297405
1752.6834739201845 3473.1684169188056 -1541.7850523719953
1743.0176641587148 -801.1724087234015 3559.9612036510093
1587.1966720317662 -3218.52104168396 560.7239108844886
1707.063090915102 2134.748701106594 2717.8638639791566
1908.1551263997223 -2096.522095052547 -3170.519847746814
1661.2087148668045 1611.3485381052808 -2830.4778551944146
1821.3829649559257 1136.869914954975 -3327.128310791495
1966.0629413107006 3423.0878107758713 -1501.7036457695817
2004.8620862564198 -1124.6859856707279 3525.9725514580887
2086.4855897348507 -3508.7664137623947 -1451.1262018353134
1909.7373299455721 543.3872029043794 3383.6458661804068
2146.7633331281986 3045.978884413685 2185.6380385841485
2194.2023468078023 -3072.8461825722734 2119.6474561235427
2025.1777741917779 2706.754138343451 2060.8459511959168
2157.823055204282 -3579.7512617120065 42.200761501412096
2535.153156009767 146.8101072676994 4152.405542863564
2249.52915175989 923.2722792001093 3524.06261273273
2332.3355247926033 3729.921062612469 -151.58451992162347
2200.818373984113 774.0442821955924 3354.862806315679
2322.9674076606616 3507.5054254754778 783.7357273086932
2677.6547810949655 -638.2716145951924 3919.368615734178
2713.008221864957 -3574.613322313268 1756.8234390343557
2553.6052674781877 164.41789859155494 3708.356880698342
2852.0079833226805 1100.180666783151 3728.051971262818
2864.489894914968 3390.9612806327086 -1235.4200068194543
48.16952217005119 1264.4292321988257 3209.940609537985
385.34611943139583 3032.7727710047598 -2239.46183701623
394.14211414965655 -3084.096344044313 2024.1222148507989
369.85837224826184 2312.371135920116 1833.395955532659
451.833962702618 -2711.1687988837666 -2176.9457374861586
454.1490901122725 3374.3587938105834 65.78548953367903
396.5392876482267 -994.5947771163043 2393.5841805403397
766.7783157358964 -3637.850887047191 -606.1228618110085
767.0335729406486 -215.33838280423177 3254.884541868
872.4523501768932 -1311.4719993713586 3323.6080086052402
971.7630551862292 -2890.0968803742435 -2525.38789536401
888.5928651227825 3098.2839300224437 1067.4107405140169
1127.8076465285708 -2823.043832187706 2354.4425075900563
1176.739609738798 3642.365135003967 794.4559291159773
1024.993696488049 233.36718125339456 3150.368352861907
1190.0657327745778 1414.5945485205998 3278.8661551359182
1305.832907217403 2378.874733178774 -2986.31528875362
1236.5216804076867 -2913.6996784641256 -1828.6481847851576
1242.4305140432534 3002.3401402154905 1174.7892076669873
1438.4441962122387 -3023.916099849523 1762.3652916097874
1414.3924220085091 2847.3383112752626 1806.3910266451549
1746.6215284918326 -3947.7746517937335 1038.171131680547
1531.7733675138438 -2002.6412560536533 2883.8427487558756
1747.4162541967648 1361.1490024310272 -3686.75648682972
1521.4706704198254 2328.5072352086304 -2420.9368136283647
1728.2098955676156 -2883.7806376006265 -2184.887464882282
1807.2762840398439 3530.2680638802667 1172.8629063735773
1905.6450565149555 -460.8532194587816 3767.921218671441
1661.2087148668045 -2346.2563334881074 2259.010893636182
1879.9200170150893 2959.0389752714445 -2100.887751124396
1709.9172344037152 -2924.365734670771 1420.2415463164996
2008.3832220185457 3477.226372172205 1435.8066571339346
2016.2379586723573 -791.4622514919029 3636.876613862968
1889.7613755855023 -3377.479562977926 647.5745529793757
2123.168726901847 1442.7770122944655 3526.257859657268
2212.4107854120566 2286.3848714761357 -3179.229500914499
1985.8562921548662 -2602.9251620394793 -2291.6816098275413
2303.510020290892 3913.155368898847 -669.413966733686
2155.408520156499 1905.926169949956 3132.7838155065683
2386.262981998255 -727.7619487088733 -3891.5348573553165
2217.8776707811076 -3471.9899499574685 1076.3413897989494
2603.970472954009 934.3421449941342 4112.1884387863065
2334.8346788507793 3730.2892254670805 -223.85552118321056
2164.6126455914177 755.0082101483472 3262.7846393239915
2365.030712540447 3466.949547743611 896.5611152622944
2718.457397304304 -918.4705024838705 3883.876019657042
2997.28649649425 -4082.8775541939244 -131.6657793788316
