# .PCD v.7 - Point Cloud Data file format
VERSION .7
FIELDS x y z
SIZE 4 4 4
TYPE F F F
WIDTH 855
HEIGHT 1
VIEWPOINT 0 0 0 1 0 0 0
POINTS 855
DATA ascii
846.684642142457 -2115.5067288291066 2589.7813190072193
926.5765573168159 1849.1741321811287 3011.596093248922
1039.8301633727722 -313.21988043768073 3640.550687258537
1038.8828899811865 -1812.7064330292496 2978.802509004982
1213.8339406653342 82.95701720895839 3740.080097176502
1073.7585525062138 464.87649844215713 3188.2869759788186
1304.8068467874261 2766.737108841883 2626.669139910327
1267.7941763947417 -3503.101320342743 409.8903992690399
1242.4203653107882 568.0633536029278 3326.849715014701
1383.097824478307 3071.984039016136 2009.7649275549875
1255.147699825954 -2594.3527977651756 1969.1070465386097
1368.1602520093732 3414.1271992252377 636.7609186424933
1505.0236132940624 -1167.2584445567675 3470.987139649312
1302.8181680778262 -2774.181742259926 1396.8363042646342
1471.9201513992907 3411.208089312127 444.1389100399886
1562.448019655835 -1137.0383101272052 3324.957124731546
1627.9147333994797 -3290.794761660608 1444.8203475266744
1607.856471075201 1791.2761681043635 2990.5728029227694
1763.5574722044325 56.2120686189125 3691.5720504063825
1988.4897394019035 400.9144914226237 4073.317636836997
1943.1673031423643 2533.5332362675963 3009.578930802022
1762.0690591062944 -3362.894210400241 1005.506106225388
1899.3986042873748 1497.483095860958 3409.651063908253
1884.5822600994477 1832.8224457182982 3142.57949501221
1774.0851527664506 -193.1199255939417 3367.4669551962334
2050.024341454337 -1269.9338193252456 3623.929924065033
1830.4320425453775 -2698.82425787653 2033.2212435190615
1819.9737353705098 3311.993026688411 6.796408414522091
1974.379737378804 -1706.8910543290594 3104.733793524242
1971.7348419530333 -564.6522125475724 3444.019146123484
2031.0935029623156 -2956.6041226296697 1959.515517174906
2173.538674057854 3376.5561331569697 1622.1543328672683
2240.6373817389076 -1449.2187128783835 3525.777803867272
2094.0664983359734 -2034.412870075253 2897.0267989910226
2174.5956522994015 1453.1967012781374 3351.511352717508
2315.139205318337 2185.5184021257423 3158.6057547547366
2613.2517369891293 -2669.2618467968286 3349.49700600475
2365.6179468548276 3825.488265775722 205.42767197302754
2210.5017644565314 1356.7190152412354 3267.530797664018
2382.3555271097266 2604.301571355755 2666.1099612420235
2444.48044957502 -3729.368469322627 628.7565665837665
2261.4887104097547 -774.8380858999576 3373.1508920649976
2614.016073788073 -3863.937353155617 857.7599494548359
2405.974907557637 -1602.556750083509 3229.2161375110495
2592.6926802594166 -1298.9313388075584 3618.950452418989
2559.7966595598964 -2854.9075389807217 2386.491974399042
2585.7819491461078 3553.064438701296 984.7345299298918
2479.1675626586857 -286.55612124277656 3490.2563787461654
3014.174125036272 -1921.0525248090332 3515.336853976421
2785.7705186365306 752.4330159643478 3508.217290375098
2875.6017980817205 3503.4995730267115 922.8324559754335
293.3930108098679 1257.3951599505217 3492.549414358085
331.3915275820716 2756.4682502042338 1983.6075180377818
460.34896688168953 -3655.1760987726852 361.4093066882654
459.66616054030305 -328.45415031548634 3400.172623726703
462.3980681744945 -1744.2757754659767 2701.8804598136026
576.6036169545396 -365.98447332653774 3751.1886603160733
537.619815094956 -1976.4133397156838 2661.3934903718946
572.5002551481228 1012.5149638451862 3183.8804073001206
766.9047285991967 3466.0771735307903 689.5397212117712
869.2190121037844 -795.1407321366472 3339.646720253086
916.0889901711813 -3435.6489397360738 635.8870677175252
829.7510428061381 865.763323196308 2934.9708462279627
1097.5117014650752 3470.794405276275 207.64199070252553
1142.4097821202051 -766.5003737731525 3341.206545097986
1166.2512503785372 -3235.151506208447 767.7367594932648
1222.5029753100414 2022.269302176243 2734.4520236192866
1231.008504177563 -1264.9546886946473 3095.5170223323644
1383.097824478307 -2951.1312116179524 2183.3610722494695
1446.252893277391 3186.3546674735503 1493.4875068340943
1470.5990010562969 -2316.931023889894 2631.324121148235
1608.5583611573747 2893.195360043942 2285.473607071455
1535.904202145846 -3142.4817127390647 1101.6844762002202
1705.28173774914 2557.2774462693474 2491.030321534068
1626.5505666618724 -3191.3622905973602 811.8224745307128
1742.9925279820668 2271.6002483181232 2625.760139814953
1967.7443113159752 -2828.9002626391402 2623.2589090747797
1851.9465585089404 3484.9101486564655 797.5125427171489
2040.2242240086161 -773.9443016517832 3801.0066058796497
1989.6981043229982 -3637.1627193082954 813.373440231413
1806.0551730826544 -216.09558531997155 3326.989434609797
2004.05924302423 -1343.1159206691673 3390.670822071204
1959.3336597865864 -2515.878778169179 2456.137205768024
2085.2932096414456 3502.0547863866163 1165.8015582193198
2087.210549280417 -620.070171563956 3591.87109767829
2170.637527936581 -3303.3220176914606 1755.888563501345
2090.1643571520344 1760.1147279358925 3089.8433851092127
2077.5633250821 242.7529601088718 3481.5472135759387
2195.193175154747 1497.3039723899021 3319.976628572168
2147.710976932462 1774.3246186970453 3040.094101748429
2278.5513505336244 165.3009211875782 3686.2956481343895
2223.6223232619545 1012.6027078545516 3411.908081418025
2353.677123123905 3652.314090926163 727.1710811234162
2383.6783633559044 332.6191770957876 3632.8044928165514
2505.0437008282365 2080.335967897379 3171.600741056868
2521.216627175542 -1757.2896939035363 3300.3111871004553
2625.8381750981257 -284.26927813999777 3806.3998709418015
2561.9369298157667 -1738.9652537911982 3212.5393143286065
2444.925509703453 -363.84199875321815 3402.6023864012177
3044.2707213921008 -2400.0746701472867 3257.2622826105658
3039.072478822505 3442.7099697432427 1987.0513491680276
3064.0567654341967 -1024.9826852117246 3639.419115053412
331.29394468231243 1155.5885729733054 3192.278191200372
470.16221484160354 2950.0061846571953 1410.802434958311
602.1522516139739 -3567.2094941161486 1663.4639837061734
541.8364410957008 191.10183629018815 3335.530106020109
673.316754393763 1162.219756862558 3354.3621206957273
767.3595219964931 3462.7634047403603 1705.5408534511707
760.7488767021814 -868.058650214646 3554.5400799241984
817.2504832780347 -3760.149417543492 209.838885212776
823.9379643114754 -966.7116464926562 3368.0089953168854
972.8100092652512 -3957.0252955576075 462.8248160127409
918.71088195759 -2044.8540305925433 2845.4504025847
959.0945877141537 1465.949983160469 3218.906591821487
909.5115506457761 1787.6475935673432 2710.594968122845
1113.5733986536827 73.98481231216698 3431.202449222012
1098.086415427677 424.2948757688142 3267.5677282034
1267.0752684410163 2378.2552774904943 2601.8314386386774
1508.4966123105985 -3172.4215198868965 1995.8070297898323
1595.1762695428115 2581.861727527188 2792.2748825877306
1555.3574855629133 -3558.0034627959562 744.201826611562
1578.4551534221268 264.95398974942725 3608.285379971471
1675.0218931862203 1649.7737472901795 3309.5997617162293
1621.6934458693077 911.3487997441048 3395.8355916040723
1790.0950689026017 3812.2520420008423 75.52064790776564
1716.7458166583779 1301.1525710914393 3350.199693561883
1890.3526938707078 2975.6416748621978 2507.0775063454453
1781.648312769321 -3197.580788768536 1669.1093730784648
1814.7805266863973 2335.349123872973 2759.414696928632
1899.0870163618952 -2948.2674345641044 2178.824255025814
2106.496008547179 3634.8642904793996 1681.6023875451922
1901.3958180924164 213.4505475743821 3503.5037981626615
2073.8468832392223 1373.6746992308729 3515.1235854081956
1989.425814971022 2417.938811739834 2626.494222853376
2028.231542295527 -3163.6982039929158 1696.7951184665756
1918.2867874044987 2311.502993417552 2424.7585264148875
2254.190536229248 -3025.615197003127 2436.9812637079767
2191.26342054634 3142.010777329033 2006.4277398272297
2413.3864561558503 -2870.4575654022383 2791.5030655947803
2427.767607163144 3804.206359104594 1166.3854325857171
2325.480863444344 1313.9935554153515 3529.330947407302
2317.9653889580923 2782.939664558892 2453.435718217382
2277.201577501458 -3565.3161691082246 519.7399487199842
2302.2843366965158 215.49295105155238 3555.475606448045
2337.938921076597 1314.2050775584303 3327.9045981096933
2409.9793040750696 2707.7961682360137 2388.9664943833686
2531.331162989298 -3753.652484074428 51.07865309381076
2577.6829033515 -992.8475216895004 3613.0683357328044
2496.602183429636 -3546.913885585209 579.8602316445182
2563.3395780116693 338.1614839270515 3639.322987972935
2822.513156002336 2218.88431357202 3312.5098343980844
2497.7964879962806 -2334.2171713100397 2602.58452257777
2960.9596984117957 3298.0992761387333 2447.445640812715
3243.3590677742245 -2242.2981619377397 3854.1899217566634
2894.5643154638474 2751.7877338425305 2826.7807251136032
2842.623525808047 -3762.577853842854 341.015972897609
2823.9310347732676 -1026.051434047303 3518.443328332783
2843.4637014472983 -3547.386232688574 793.269132219051
3140.2393581560427 346.25672783516893 3760.0907274198694
212.36304687764056 1201.1747433597486 3300.2004842001106
274.3445960455419 3002.409540933943 1741.6595386322865
335.58759227171504 -2971.0037905900035 1732.0096640318811
634.3509941759783 4057.5762263983347 2076.4005314406577
468.86819039708536 2336.1633490188246 2275.183906127403
575.1393770036207 -3120.423982858225 2299.202071850844
527.4951635073634 2560.6553805204667 2309.057821322711
571.8148313167572 -3238.798146542769 803.589177348182
678.571466996855 2215.858989611041 3036.4535132552146
657.6246780565727 -2099.416427695106 2365.8021183361725
823.3266950496187 1893.6524459523446 3287.6308208098276
941.3108899893432 -627.314440257432 3803.616909343593
830.4801513837498 -2915.489685370896 1502.7707391667946
922.9059088158438 3273.9660569936004 1292.8829249602518
899.9878694871816 -1731.2308846557519 2706.6969952349787
1158.431965595866 -439.43397496578194 3643.5968193044864
1127.525512914204 -2411.4672003198248 2502.0893153086413
1073.092035713845 2820.2637686501166 1553.8700959988387
1269.920792168208 -3631.506267333543 773.6480015596223
1197.818953396302 -187.69216313406028 3409.8382149154904
1274.801532399219 -1064.3722756277814 3132.088066909189
1330.7357705982329 -3239.942229470134 955.8547743753231
1360.2831033729524 1906.4521016442936 2623.449901205673
1611.4102587702698 -695.6814841253993 3701.186738418515
1688.7244105443544 -3559.0604830886887 1325.8553758674088
1663.698056699023 262.22337131705217 3663.6276971787292
1683.959832442788 1613.2148731217599 3275.261634303242
1689.040959294386 1132.4313726501935 3349.7604669942593
1735.217777310403 3227.879597522756 1386.348550652516
1707.8515495953316 -2057.4155849443414 2709.362491588775
1788.2292363560455 1499.2469259046202 3109.4312430355403
1775.6630523983213 1691.8413440638788 2921.4805949237675
1833.2769761859877 644.4014646961721 3372.9961091435357
1942.5656420739047 3235.0563335139414 1547.193109793129
2100.223314186621 -2273.110605788703 3072.5644295687134
2172.207794609816 2865.207342567234 2642.913332687777
1996.5933901037306 -3388.1054974497083 1004.9363851264737
2039.6828467865148 1287.4952199566546 3321.1744998703043
2324.9785015883135 3125.0180478887623 2508.049281886125
2083.1109341245246 -2612.8354613479128 2394.3740000097814
2133.71330039753 3499.1144438099113 536.4681809025158
2046.4268797248515 -587.5204343461556 3302.1410840885806
2293.3711967159566 -3175.21140161612 1926.6106391917888
2206.7530333692675 2385.2236414835425 2604.943795959519
2428.888610141022 -3277.4796658127016 2006.682844941936
2234.6967863631885 1865.6212780501091 2956.5982559161935
2434.1389140929473 -430.3804063083508 3741.3271316293444
2351.007333156399 -2455.5766421971143 2629.7808567057345
2594.2029150681024 3575.965451290489 1625.3169202271938
2448.021070990683 -153.82087985753054 3664.7732722393425
2700.5810622728122 -1062.3450955893093 3861.5343968269067
2468.5486267820784 -3347.9575266042184 974.8586564493155
2848.602573695987 1697.8494583669565 3607.4196064116295
3035.9389554448676 746.7927474678963 4144.251632361306
2937.8543774695167 3861.705472288564 1057.9446324343064
2629.2999872545815 1567.0313243839123 3188.764937777572
2556.3068847002064 1282.986718345966 2979.510208163055
3052.5985413807057 3018.3051757818116 2383.6001900169263
266.74875559753514 1314.154672095396 3591.0964200101675
286.83276838066024 2721.505110340589 2400.6355271865114
464.91410558160044 -3452.56664677153 129.6477905742861
566.353565923509 942.1199778039245 3580.1136780027996
555.1350307903574 3413.7548851043616 251.40919717883298
658.6642365106616 -1011.7475004307604 3002.0977657917983
839.2111536317398 -3570.00695509788 705.2455888219112
852.1854749838672 182.61018044814455 3485.2192932434964
956.382982999101 1105.1728548540052 3349.376354023813
1099.6606673130368 3456.866925802423 1293.6584005421628
1136.0208839726217 -889.7594207145714 3487.2810573926604
1156.0733763637666 -3468.4459275878426 61.99876933706464
1253.4160173202335 793.6170485204275 3395.4883272215393
1372.3683324084795 3663.923810252615 688.2196689022757
1374.809033375468 406.2679238846462 3626.3131930408963
1355.151572478598 2192.351993010548 2555.441593686437
1407.6203920076907 -2166.3305347759656 2652.8545030018663
1410.1979011840474 2006.0647692764394 2697.9155178522296
1662.4909349724437 -1315.931559676657 3499.777868700664
1543.665389934732 -2548.7661510700123 2262.3560964533754
1583.8723814320826 3315.0676244703022 895.9255801621185
1595.2643703464569 -1621.0330015180302 2986.411895233048
1758.7807726589167 -1131.4852528793624 3503.8357727662587
1841.2841711051099 -3484.862881550077 1489.9096270561154
1793.9968594339266 724.9560664062809 3558.9131349023864
1920.3103504677674 3590.657496787194 1132.4326650030557
1761.2918318686427 -55.43707343745238 3399.5480186178706
1960.277309327175 -360.04702009942673 3709.5680534689645
1793.7712987725447 -1975.1815196121795 2718.135015885436
1963.945087625061 1075.8023521687737 3408.2437264767514
2089.7329989191408 3574.855937843702 1132.653973490414
1964.9552379119339 -152.58188617189774 3474.651459932669
2307.6703741015313 -1060.5714631887517 3887.941379633915
1987.2850930721172 -3291.378075868639 947.3412065835922
2312.3471825185893 2018.0433812642036 3376.959714200888
2237.9879899367315 -1379.1497930600474 3447.3634633299735
2122.0848800486087 -2331.0690357138856 2581.2014936335245
2365.6179468548276 3063.869056830843 2299.840734180191
2327.962005190796 -2999.539528230268 2210.393317621129
2276.884998005057 3086.212836812865 1778.5202629971604
2327.4918294340687 -2813.4204853747888 2247.6356849973454
2315.0691999369433 3473.8073091095266 696.7867530150305
2579.6732653401245 -853.3494395263447 3811.644098556432
2461.66500472507 -3602.027449339309 293.92899517766466
2691.8796906363546 -13.846382361572486 3912.9755018010906
2566.068020475536 -89.26234776726159 3692.92136841161
2463.7515561025975 -545.0867067526488 3470.4537861959134
2397.7557209380266 -2757.706874735365 1966.4236046786323
2686.4172754193405 3740.945369193344 378.0578589460547
3195.990831034694 1079.5353958790358 4299.545595646625
2630.1830879281442 3439.925321917292 1114.6164271318694
3077.9971771904256 -1069.4075266480497 3727.633504242135
339.63879183599914 1261.7196191406458 3429.2535051634172
427.15645767696583 3227.3824314494423 2359.662399830002
405.74473486767965 -2116.073304009179 2781.592848002683
478.9328249655601 1745.7600163384002 2836.879088955705
547.3504904812901 319.0228763036605 3359.8883023688363
636.3317495749505 1773.0243347490052 2848.2292232873124
807.914273936204 191.26820031184803 4059.496579078429
816.8837009183977 1138.2915058528956 3282.220048641338
825.6694431897585 2983.0135642786377 1317.4790606797735
932.2497010351317 -3027.0425536866683 1629.9869257666128
993.8241397262746 2985.5378870301506 1916.994398820076
1225.8791338565375 -3069.8988637602097 1670.5525930912127
1403.443039003458 2975.3129353404506 2241.2358057098304
1265.5526700118003 -2912.114931231011 1517.9731971617305
1479.6458124236124 3501.5356693070344 1358.964295546627
1285.5224599039625 -546.1996399683992 3146.9512155892075
1631.9486794874692 -3109.6670544013496 2208.295000848128
1536.5724296165647 2659.4294048175666 2309.094896445723
1613.420222695867 -3553.073937053347 252.01110656522272
1740.8005548100832 303.35109945866924 3695.57060688295
1748.272033658782 1848.5071712590504 3158.8955724752695
1636.429403993557 -280.1469050176323 3301.1341553485886
1839.7236212847909 -1694.2004443935516 3184.3576831469
1778.904750187329 -630.5080445003433 3375.6207734015907
1921.8817516183253 -3257.2074974977186 1655.993755496876
1936.8459142698787 2043.386972953586 2997.824824562566
1958.449997844353 -1468.830686010486 3247.2499774168855
1963.2603369016592 -1898.5644787954213 2910.5116251024097
1919.4320332477253 573.7961698434749 3302.5235737951907
2101.0100210260252 3049.8259063434007 1951.9741138131556
2058.423953528241 -2869.280660937717 2007.7929397148546
2238.622606353751 3510.0261559683036 1068.3058477881586
2313.748485216664 -585.9909923870667 3700.8949670101715
2280.478078085455 -3115.4305128015267 1901.734134916134
2594.480287439213 3072.4185530745513 2722.364640294037
2356.786913993443 -2935.1765963352364 2231.3017161123453
2506.5296624674584 3555.882185826915 1547.4449523387912
2300.0405260451707 -270.7726383987538 3509.5700845394977
2529.4799299161996 -1743.3838907021757 3410.2071212230126
2547.4635845069347 -376.5585951795187 3798.3802632696516
2630.453613964105 -2383.1883979793374 3088.3999190093045
2492.997763501316 3114.600880669311 1922.2022146834483
2670.5537845771346 -2909.2372466969678 2570.265091859407
2755.015097240383 3704.468786731262 1416.3569494071094
2837.885483501495 720.218254035369 3906.1579162335775
3352.2258829089997 4122.38880786638 1337.7094291280155
3092.283909833393 3080.063633255945 2385.7963062873127
3013.831417891287 -2855.503158948709 2231.474335329435
218.47029851051118 1253.4785091341735 3388.592720752786
293.6467387706597 2712.05189165878 1923.6422580485262
406.55738526655625 -3501.2252968779503 73.6574538109077
467.11696149416196 639.3360092078509 3671.754140370809
532.275388178476 3325.4526329667406 1626.7048859257086
600.4066771033625 -1533.4447711938406 2951.4103634869666
834.1417035608505 -1799.8849601887835 3585.604290783664
860.7041973108821 -0.7643783924061587 3806.999923263156
903.6535549660374 -4.7613728209050254 3568.996823944911
824.8471560041604 -26.143472719844038 3145.891371111556
1051.4137118208412 -156.31621728640346 3423.433107308111
1157.1693694480775 -987.8086572088312 3530.4093327464575
1255.3843784267249 -3722.8485634724934 575.0544091221221
1365.829283901962 -828.5347102082534 3804.8345869406894
1239.3973122225884 -3421.213301443769 428.9563451264312
1246.7095345134073 1015.8707290155978 3149.2042902818034
1422.3979613317767 3615.7796049009658 741.3628320749671
1581.7538029045338 103.84249697193667 3769.569966962098
1569.5621825227938 636.2781224675081 3472.1823326071494
1626.3057708006766 3159.0403206173532 1566.2503799564777
1566.6266050165177 -2322.0923560960687 2396.55087360152
1704.3263978400366 2819.625550189484 2186.397895333475
1622.6620399712576 -3267.466122028908 692.2897813729223
1623.0929735957827 1801.8540355316068 2747.9297725084716
1756.044891382854 -11.319167007550842 3497.9816861239074
1928.0965288867906 -73.52583306296155 3721.2737002097006
1931.8751159535054 -470.05168979173476 3642.798431003826
2054.8290860046204 -2815.217203357965 2624.757721755926
1926.3143957654224 3484.3432415207644 710.2733102606159
2110.1144757918955 -769.8856376711421 3762.03084847901
2128.741348232298 -3721.922054526653 860.0559400574464
2084.7282426380207 -779.2978391908182 3606.770699369801
2102.5655198252084 -3453.914791694206 738.5774243205425
2208.7254933225886 913.0120367593328 3502.9714558832156
2319.839754501724 3712.0425379135645 84.31605256547859
2378.520235142284 723.0170145825338 3650.0804644040604
2205.3324415520806 3250.5117781208596 1037.2642769793858
2531.351419857668 -2219.1996842781537 3175.3785225229044
2509.4218175913215 2512.025613582331 2797.736105622958
2376.915916232625 -3336.989421870104 1135.8373995986537
2497.7657920107445 1624.8027497952146 3287.385743148788
2497.194806289284 1092.7538357243614 3461.616537762335
2600.1062806280265 3533.1781471332893 1235.5974994389458
2494.6098164124505 -413.89938316183446 3532.8368630065916
2619.337516229908 -2446.3664754103215 2775.840605652363
2458.5004906164763 3109.3201644536816 1473.9773115356047
2821.9250588780624 -2905.604874992979 2519.7571927503323
2275.5692262335597 2879.128500275532 1079.9278118935385
2756.1902606679573 -3430.249238068707 1108.7899551894645
3086.63812187753 1143.5904068700816 3746.3435482233504
3073.7088632798554 3366.9774454243866 1524.4273947956567
85.28072511091642 1277.5165534344528 3435.138491487782
272.84285380271126 2729.399349526249 2113.452907165354
397.4542327559562 -3715.1039275745043 190.79519732029584
614.1449546623631 -662.0925581372928 3251.270127882212
654.1604185645319 -3155.920695245818 1391.3179238833775
748.2741752531159 2518.444251560068 2571.0386134369996
764.0367768551633 -2973.219416955061 974.9909223379493
936.8594290507212 3069.5654703856553 1585.8098319206156
1388.211258643746 -3086.09212680844 2321.869803596007
1303.3188580937601 2642.762939553433 2110.38575746779
1309.0689655707306 -3306.4328225924455 331.4075884516762
1430.3316011414638 1671.7370972822919 2972.102804004292
1468.4970812797574 761.8900088371591 3346.3633416642183
1553.5872861625742 3458.046043657667 850.0815019417602
1668.7158274810326 -920.3462352758677 3638.402370163797
1580.8075736127391 -3487.799746844691 123.90692438321818
1723.1645943594235 726.9403845287663 3664.59461296078
1610.2874603556054 3274.723395404734 1020.3365540785496
1774.7258778488037 -1964.2425988825985 3079.961040781999
1644.826415725489 941.5495725269161 3194.117155408421
1812.772470778584 3601.5093705601 261.6319051029372
1795.349915975177 9.272896313718336 3519.9877859722687
1807.396235702851 56.464408294820956 3488.5430727734915
1962.9071420469595 367.1897804044506 3713.8922527675104
2050.5582019599237 2296.498124025466 3078.8597510032046
2077.143937107647 -2880.7436280669126 2447.3896603017433
2001.3171110384249 3322.5380007188355 1084.3275491193995
2084.183373522641 -1672.2765183278514 3178.986512435886
2106.0345589639314 -792.1219351798186 3494.3428337538635
2162.0945549278476 -3567.8120505173083 679.8096587894895
2031.849586339004 189.2783606861355 3365.6819074558975
2231.9110095508368 1186.5711303593994 3460.2041778770244
2114.915548937036 3005.4559067382274 1642.5162990522492
2325.46285113262 -3205.479582874172 1891.6090092238464
2198.1979146683516 2210.0329293210284 2685.5611054892634
2397.05747965159 -2460.384011095446 2830.019526071487
2584.9319093848567 3615.063445574938 1606.627612257382
2536.744754780189 100.97083914223114 3839.6726279258387
2346.5723087913575 610.101835101628 3426.102122063151
2883.6117349979945 3530.312856372984 1956.0641952982076
2625.7159049466177 -441.87423770625173 3615.094903049091
2791.660036357361 -2675.1156547424025 2752.090157271765
3067.091776947368 4106.124294849777 178.4468415086911
2758.4374091373256 2766.879078060354 2271.7350566014265
401.4074065763784 1315.7291313918192 3519.07741500623
552.2788689853775 2700.683891475829 2395.497133858225
527.889139708622 -3254.9976812706345 3.8852184997843384
620.9687475732901 1854.4249391029805 2698.181636812634
824.4082485376806 -332.5323707041791 3490.1945823168453
967.7740706748249 -1894.5163471808514 2889.2616375580324
1063.105956437841 553.0760880888992 3322.2779595910215
930.8980421729068 2358.9481282246034 1632.94970171945
1349.3439278815736 -3185.3528339311374 2157.0666015139336
1296.9099485206202 2389.068615388119 2703.703968811581
1494.5856838997927 -3476.695482818249 2096.7089735466825
1251.2306932967742 709.1983512076762 3244.391884258792
1405.8270828876514 3447.586666637605 1192.497453256236
1287.402160543228 -859.1090818538106 3153.054960744627
1573.7842133380566 -3742.4488217755356 267.5459145472122
1565.626695921513 -900.3581196172239 3546.4963353201615
1703.842006636642 -3831.99925147476 2.39514026253079
1651.921266752338 -1436.7017650339767 3352.088459206925
1723.1645943594235 -2213.328189593093 3009.796392640632
1626.7189650531116 2288.3964743581682 2601.8198585115583
1789.8293197047694 -2821.0058666473515 2466.1579228308206
1715.9408159217012 3453.5228112024283 740.408125633745
1760.061003198481 -886.580552264618 3392.051138226864
1924.3906911858928 -3771.9651891395556 88.36069216228297
1931.2046909430294 -1102.1832380687838 3561.344705265163
1805.1171788599047 -3220.5288933672773 1186.093439399502
2043.0743804672572 2286.3238902034177 2931.935720489982
1939.2722229969627 -2611.6870555584146 2299.8892851240944
2074.612845004925 3580.048155872368 556.2231581252751
2043.5673278248166 -122.62019074048197 3519.864811157208
2106.0345589639314 -760.9670837359629 3501.259501589447
2275.231316187827 -3619.7502897779773 896.0183255113965
2123.5604592100635 -118.52146331913515 3436.9570353341182
2325.46285113262 -764.4498887771846 3642.6501846250007
2412.3986475213596 -3668.8764960578615 884.54579116866
2228.600896386745 -413.4939598842478 3423.1165252061232
2550.954037977371 -2579.1741036571625 2930.712702232048
2532.491090909342 3769.599753363288 806.9341357529962
2589.5097479399806 1131.809949069849 3711.253998204179
2514.7944652587043 3393.929923545641 1453.3078387119092
2431.841223204578 -1244.1649263549873 3308.8183141460167
2523.3641044284504 -2968.1731147556147 2033.6057535426946
2509.6085121716283 3163.7336496413504 1599.3168523238355
2920.5862523170645 -2795.0122190714055 2932.321212834899
2724.0142876910677 3693.62639505921 618.1820554835814
3285.0434922387326 710.2723177778363 4307.838116108647
2815.602421391002 3510.338941392021 1206.8407171398994
190.1713503502789 1106.5419842327872 2943.907239899071
254.4716162185691 3413.529526259556 1286.7479059062855
356.2751670206547 -1167.3614089703835 3459.345073976674
412.30534521646103 -3446.4257825284953 1736.096289242866
470.7860869949199 1032.8744217965673 3760.740675558261
631.2754509412083 3403.3827593752144 803.7380127800046
746.6108817265738 -1208.2502757408686 3381.6286418192217
798.3048386405897 -3032.197337591441 1809.348033382019
828.170522347322 2946.4195189523043 1929.532590638695
900.6152129487798 -3233.067798532888 1483.0784234455396
972.7218527576081 2216.837294533122 2974.849981018718
943.1122702472323 -2044.2662589566264 2295.7463846190585
1154.9598261894478 1513.0974466637579 3331.488723813967
1254.8538332276844 1675.9394111051863 3062.40233971704
1208.184781911113 705.1003071460781 3205.3638727705325
1517.6022982834709 3797.1952611569072 1343.9092784289903
1442.8225324373266 1263.2858308671755 3524.4354029447372
1314.1902103954128 2687.5911708136227 1976.296966188194
1404.3325195592056 -3416.198664550445 73.99786702167575
1568.7507883487024 1179.2968351810812 3549.2054004427364
1508.2902714193312 3114.41888766952 1651.0663197241206
1627.3183311952828 -2796.110150334847 2468.738144719776
1574.897804673013 3492.2843384971234 591.3662985728123
1637.8797095082132 -675.8080438642023 3552.2865154500755
1724.5482918388343 -3456.4000722802966 1425.9802033481246
1657.2346166341945 875.4876754544467 3419.710708543541
1722.7423933347545 3542.7553621883158 151.6589716631872
1828.5727900948227 -369.2545205486727 3683.5383938618543
1778.6355203457554 -2128.5472553732975 2832.337476651185
1872.1496118744924 1960.6341126225354 3035.9364084942295
1959.2253762392615 -1030.7114077152653 3579.5612851305696
1781.4925071440423 -3250.538348000387 754.6982497521201
1977.7766757422828 2091.316577177055 2992.690424020575
2090.847523185231 -1826.5414840294059 3277.384659621091
2098.852417723644 172.0307381727666 3711.014743318023
2174.82185628725 1123.2938161350341 3628.0869618344036
2131.7621699115207 3398.5051444900278 1395.8648870412974
1986.7141527485592 -1164.3107925228803 3173.134157014913
2078.8636082121698 -3088.4775567596093 1535.2222579783668
2069.8385167991078 2610.5893009252577 2102.5526157256027
2331.085947763516 -3685.6635548142613 579.8665024933788
2180.6025305752387 -516.8728520649221 3431.2887454713386
2224.743145380275 -2761.9286215497027 2182.235159066172
2353.5908373539073 3660.5133601913517 397.197608075148
2363.0408576536947 385.4136754166605 3635.62818489485
2620.2166220003223 2498.5488642615833 3136.4555748323855
2557.218352124158 -3635.1240890676686 1333.5129759698455
2652.2452933797636 -243.46595921962805 3966.5350530029687
2420.0712690379833 -1479.5847139041678 3269.824165667188
2596.257079596627 -2002.2345594889835 3199.083113766811
2914.0918640754935 1450.1375574459482 3936.3848979088284
2561.235605717816 2093.9828664074676 2992.046081729352
2714.9079391193777 -1882.5159826705044 3341.161261446401
2697.134365613833 541.7888617679771 3735.918873485365
2578.132914906399 2899.593176316275 2092.877304540353
2952.409611145005 -3815.1971079353293 1385.5511638340527
2868.2056327105015 -1398.3227408966618 3546.270930469251
3262.3669219834856 -2774.2626209429623 3286.6499524650762
2908.6874914786044 3743.3353885678594 487.9192235355262
16.489811239847498 1252.3613715099082 3314.2782012302196
279.48213529733107 2888.138227363791 2040.0866598357868
324.82186622510864 -3481.489922712495 1186.133178884793
396.49264993477243 762.118459007697 3631.899840915183
531.7787669233164 3375.834109963816 828.4443626489406
970.4177328536097 -1206.1722417557517 2923.990000533159
929.2757033054044 -2464.7267837543477 1458.635623260295
1135.7446141965167 3124.6923660372413 1360.4269982724497
1354.782038795515 -2780.1650474546386 2544.807126072926
1275.5515750524091 3431.1398022359754 483.2231963721034
1188.0934475171682 -895.5150685099009 2950.0748739772193
1308.6750236611394 -3321.8982267187425 26.00329446196881
1243.2620158557734 1441.153672258484 2732.214686465155
1470.9119366410293 2097.8490150076764 2899.701796776924
1530.161196763654 -1812.126750445002 3166.086012780076
1674.9407199896218 79.72325148210444 3766.1562903274635
1611.1554553984276 493.3372903131029 3522.6222218663365
1768.8266111799758 2908.91685147708 2499.085382933659
1744.5563273123703 -3471.696168720107 1325.134601500591
1835.454247608207 838.9637390465051 3683.6698881095613
1628.5263341282093 3278.310022368036 350.5601192966568
1948.8727354946452 -2034.3704407940113 3234.4053409589187
2008.1402648272483 1518.575801267426 3503.006071334304
1911.7544705072864 1689.0318250246671 3157.6466702362127
1943.6490584944702 690.5732471407903 3520.916441827813
1906.9510192803466 3195.9375747258055 1223.1381845301612
2111.281691798993 -2422.3341208485595 2845.6047524160545
2130.729891323027 3292.537263504634 1733.504937527844
2101.0100210260252 -1851.1898711753938 3112.0310186207385
1994.3553610283614 302.73827978777365 3379.46719675619
2048.2573152165555 1692.3750937051211 2899.1922223623915
2326.0983570352746 703.442830763492 3700.737383798997
2126.1553149930965 3204.709911119915 1144.6586327677728
2223.4790867749457 -2239.0972831863182 2713.441975872646
2262.1830454631936 2454.3820075890517 2549.613688546392
2628.7110898521937 -3658.9726231117675 1672.2584558968726
2468.719576508291 -384.06084025679183 3718.2174857021537
2390.4019639842995 -2202.263874683845 2777.9594716738575
2676.0572442053203 2512.198504339138 2970.009877895392
2866.160436513823 -3906.335283602329 1328.314967198484
2514.2468911550845 -1826.7188888989424 3084.6917351560132
2778.621554379024 182.9692063042951 3920.733001562893
2632.9254488921056 1146.5140969211743 3467.3634689142445
3200.7730224424113 3866.2999157433487 1774.3283127772524
3090.942852146641 1826.5253226675022 3642.7229163984425
2853.2105379987474 -171.37071525788375 3699.0324515948764
2910.2662822102684 -1024.8228925646456 3323.5857201034296
415.38044674007375 1270.5727114963145 3344.80627014494
495.03624027511955 2747.629529360862 2074.796609160572
562.6819058526921 -3665.298970280464 305.39721423249586
588.5436829501043 -412.6958522206376 3605.457409755367
634.2454159697868 -2205.7116810270677 2513.3984921179426
831.5729824539111 2492.3023770048044 2910.7821735018583
842.7493333596826 -3351.0864235236577 1270.935003088443
901.8811887893038 1499.242210655497 3231.1169576152483
818.2924265381388 1564.0734218657146 2700.799017145347
1142.0182156746166 1448.037934826703 3315.585942077632
929.2757033054044 1650.747201326687 2340.4122878911976
1340.03492154997 1009.1167480906255 3785.8166079094485
1235.083864500236 3373.877674894951 650.4194299415105
1270.029706762139 -1326.4988388257682 3184.7921173278937
1302.9334888276178 -2486.750838135893 2290.6835811675155
1469.0535311989554 3400.0960800501334 1327.3457147358843
1412.5522006804185 -1174.9816194749599 3229.920617274672
1588.0455841412265 -3358.279094426033 1748.0725167855767
1593.867024407662 1525.3080862672366 3398.3908312564317
1579.7639885410506 1670.2644279620995 3212.7648125383284
1661.6016646140738 838.9615266987357 3641.6085122812597
1540.516527077215 3321.0648934101146 355.14500384894126
1710.0584372946557 -1674.8303819910504 3164.0706679149425
1779.639548299662 -768.3029806215029 3460.742049036321
1786.1691493593949 -3409.895715193037 797.8817027029555
1842.1040453308508 1158.3323082024162 3362.053280924391
1853.5061009039348 3171.8332588856606 1535.5942751347995
2028.136060725267 -2582.008601120335 2786.688461909693
1756.759725946925 3174.4768969237543 663.1330416268901
2074.396392217293 -2552.8930162143224 2780.892347388539
1936.4859123317372 3361.0907292496017 882.4364621616567
2194.2910356221014 -1551.9477658827982 3503.6669550588554
2056.912599982673 -1487.2510039074202 3217.935588444301
2283.545705156258 -2016.8773028645135 3320.456436273478
2082.3256478903113 1292.6781272259234 3250.3826327667457
2176.997944799723 2762.3309872052037 2258.3515043336197
2334.8346788507793 -3714.908383863341 405.7396942645154
2616.6013130324827 -824.7345401912507 4057.0202043144336
2260.9046148073794 -3506.526199248705 463.295816927407
2324.870508996795 577.8897713467271 3510.7559602132455
2517.5920346842177 3225.297492652985 2031.9449017840934
2576.82915896811 -2348.8371104698394 3064.357229253746
2329.8904227547355 2840.8661168821923 1997.8009675517465
2512.7510244689493 -3578.0677650569833 897.8597154679147
2595.9383304052726 143.01358361624966 3734.262459295174
2761.1129736339103 972.5255587430495 3814.9918790990264
2564.8269787299882 3594.0135333016765 457.37918890609706
2829.3118113459013 -41.374734750904224 3959.783849066044
2367.3320177954984 -230.80718044237315 3190.6627909348617
2566.357328691484 -1348.1827222318962 3163.7200172384714
3288.8055667832114 -3100.5513014833637 3080.9450866365373
19.957186168915065 1529.6925410825531 4005.8687858885746
331.1963617825533 1542.4663049850376 3023.248864712564
422.24170103535994 1717.136988051535 3559.458465028817
499.7809965716862 500.9597709470781 3439.7115152135434
518.3206422453935 2451.7158774982004 2050.245169735373
672.5580876282488 -3218.2409717010837 1488.9731522309144
734.1361802775083 2182.4328140004427 2775.7788118605754
870.4258365240074 -2383.1571512321766 3023.749657714894
822.997395859065 2978.343214423897 1838.3339460215411
764.5251352935495 -2768.747810476899 1461.915374424723
1022.49672452407 3407.324347084905 410.8099241284538
928.6267677584033 -944.4029351130055 2701.693375671995
1169.4037122111436 -3498.4679213529425 271.66744976979174
1214.171508806124 625.797236216929 3494.406647650392
1346.888662091303 3408.5854834390016 1768.3735471016607
1243.8928635215268 -1107.979011279089 3192.1816224276795
1293.684626440199 -3138.2534626183465 1191.9791123857663
1389.7648885561623 2491.1805589249293 2391.072651099183
1434.745339707693 -3261.700118043175 1244.344542302147
1450.4653010988804 1925.1739671009846 2872.537066148435
1561.8765752490917 -775.9150109800147 3494.904275618416
1506.4239870785343 -3308.8577262826357 728.0141119646684
1675.474846645708 1799.7570898406339 3231.6366468971064
1550.2024094330895 1.4249234901936336 3360.9996979459916
1702.30388666164 9.01771001859859 3625.988786649239
1662.4998505334263 53.85620014819999 3421.576173301655
1818.200010896554 345.49294016423977 3664.7504182818057
1979.2121049096218 2134.053964452875 3099.3519769143622
1976.3515916833217 -2038.1707818371474 3090.414836889273
2004.6087520023007 1473.1280674303614 3337.333920504343
1929.2415046021506 1869.6607601414769 2913.7283061375497
2128.795668905166 -456.98925773904926 3740.1851315558047
2046.5543218458743 -2557.83903029289 2496.184186936198
1970.25616568437 3249.3496717470957 823.1832789343102
2197.8119759894307 -2121.075540957879 3021.9037955484687
2269.7400097127156 1977.2181772782183 3151.032890885241
2186.5448054849767 -1077.8655418547305 3372.9641079742028
2413.087877574401 -3635.503819586685 1166.2915492151276
2221.27326447714 -215.19356846446135 3468.33053904779
2523.5359823002086 -1401.6021734807662 3554.652211861801
2352.582953991864 -2258.2665531018756 2706.63207236251
2446.3690621537485 2602.1280983701135 2528.1046971343444
2349.2757612885353 -3398.803006518019 586.2926938689183
2473.117170415971 1236.617275272377 3375.61886392672
2834.9008098431677 3396.7165368812935 2262.0516722827433
2903.217068664555 -1424.685829149422 3845.578147459862
2657.123895554396 -2265.6012559845785 2949.2392152691004
2984.751193431905 3006.0387799296273 2846.63500532808
2742.552342924915 -3137.2790970339665 1855.6683074606137
158.38341502551634 1109.1488038427044 2889.4314200088393
306.982274877237 3246.972595192748 1240.8646042446658
464.44433695080824 -1808.8165455479266 2554.424143432736
614.4871704329062 52.37791848101597 3403.597002239777
804.6640446083253 338.5012360893911 3692.516880552607
910.7054040463311 2157.347623673463 3216.516785379871
791.1406701855958 -1892.2695425417864 2630.003037710926
1127.9640440116927 607.0682857829307 3737.01272360646
967.3497033472752 2749.8182957278123 1542.6951547472331
1242.3873009755325 -3713.9166897609116 323.7388168189821
1244.8197556671964 -700.9800363403856 3479.084360669087
1314.4945668118912 -3207.282345170743 1161.1463983305714
1466.2361682624094 2306.017027934519 2820.2365976768774
1439.26616432436 -2706.179034149095 2222.745832328085
1553.2310612981937 3702.7846645991303 39.93404073603077
1562.2036258019796 651.4567940008246 3592.40936497362
1513.4496758489104 3147.699136134617 1458.0641784151294
1464.183645055966 -2337.834549581467 2319.1331610718735
1531.8885999880467 2728.5628735811047 1998.2163658910472
1610.6238660340223 -3487.66176747277 174.0097575100752
1587.7528253418827 658.8589248123063 3317.201971118908
1726.6290089993563 3243.8552476467135 1452.005210842881
1842.3912954188322 -2137.1451317494134 2983.5399588139894
1805.5507677704904 1964.8952163473891 2944.6199735747136
1887.1723951463132 -1034.0290803258488 3493.1694578191423
1957.7334719618214 -3515.5695103489975 837.715356135071
2140.443853026245 563.9597155452826 3799.3723743852856
2011.074491266557 2886.7701554067603 1918.2580821810259
2103.7561005272614 -3347.8953788153044 1131.7033765555047
2087.302022394533 1475.0458189127685 3133.146793897145
2281.3327678268397 2008.7110514128499 3153.6012607702773
2305.103574943637 -1329.9440574375517 3488.0564508170655
2377.3202978397685 -2783.054192867938 2594.7320400303747
2597.0084046498723 4065.905345450697 593.5442037754616
2512.346776176125 2823.75449741784 2671.1756846588214
2507.828278114024 -3748.820996055454 822.5479557653728
2526.1777367962045 -982.378057106132 3696.6955991691257
2391.9595197466215 -3547.019943978492 513.5226548252912
2664.168733343291 364.81924915625314 3934.120983834263
2413.303572700864 2106.558550341115 2848.72955437766
2590.7536199684414 -1920.2091034422829 3239.684089391647
2598.7169638871087 779.1330428068715 3658.9660700266827
2845.271865388055 3967.063955669652 849.5013664654425
2581.1093470741203 2179.2675789604464 2923.030759210699
2911.175132892959 -2359.0406930727468 3027.403344192322
3133.440662538 2980.3324423365684 2017.528074936293
108.24245908041105 1196.2693933829303 3100.2045962251
162.57967997934264 2761.6472539667293 1570.5519554150462
343.8215355778218 -3677.609667760298 397.22554247680176
401.51424911206544 -507.482521538415 3723.5769752125457
459.0956345460465 -2836.529554023379 2317.6861498382236
637.2800830318432 3265.057341109215 793.0955549420398
1125.017479225755 -1939.76515089486 2931.3028092255904
1349.0307751657117 906.440178975353 3641.8917065090127
1447.7365177467452 3674.7678474897903 41.30698555033119
1496.392948116789 473.7831783125836 3610.0430052768106
1422.3620115749866 2495.2364494186622 2296.2308380240324
1492.8864558814316 -3268.553235316326 1220.5247838135756
1572.783534573457 1971.0518014303755 3018.439960654853
1467.7407264894455 -970.9123614917984 3154.984974021654
1612.0075635134328 -3468.2661582528854 431.45666702204306
1809.2195918721447 848.6943312722639 3626.0024727054897
1819.1878946297225 3668.2440576352865 329.35472309261183
1998.2398724123914 444.76916928282157 3716.4807797236717
1925.340669670835 2420.648513243602 2465.2557220969065
2003.607602724878 -3091.2909479564964 1639.1831121269606
2179.5077155004906 2876.3921928897184 2340.006827486424
2067.4433891146514 -3309.7115933266036 1052.3963934751368
2294.0431698624293 1846.860782227771 3327.8733826678304
2261.8790235785 -299.25370226231036 3650.755568602519
2113.6595447022173 -1687.6824453087697 2931.964693477159
2297.426515186733 -708.0180426663209 3565.3801271756356
2442.5414116721313 -3568.8374372112066 1242.6746745467
2318.336302956894 192.8768060558713 3542.7535248286304
2527.498614044203 1264.101936992626 3612.198124811469
2363.9287441245906 2850.5598303215547 2102.396883025931
2652.667540785531 -3723.6330682258413 1001.6450335398297
2754.099732654398 -840.8092076896115 3835.9312919113095
2695.6484812178483 -3719.06564311691 385.57974815516997
2393.0592807753305 -678.7805963842181 3219.2168149989966
2867.5872363105836 -3589.739917366109 1459.2437512863855
3108.9784035571333 73.98868828900544 4131.337516350519
3122.3631730063557 497.84808684748356 3833.810543365739
309.0135154762521 1265.3243707172412 3262.200980453077
359.98331721150237 2964.1852157682747 2195.9797372974067
427.4541098090977 -3297.48130074997 1638.21276737922
492.7685831084865 1844.9235436596502 3163.3054101762477
563.7528067066803 -288.63154914895557 3673.6789229375877
650.2299611925171 -1738.7549189661866 3154.542016168257
643.349417155956 -361.89039992819744 3372.6398174782626
701.5854520546698 -1908.929036155185 2609.2678925176765
837.6435647588175 700.1480059685022 3638.2437754689186
899.6537247305093 3595.601875613945 1307.6402991960283
818.7329219544145 -25.73796249656872 3352.9012149609366
946.868166790089 -147.11242449303217 3272.6952095420957
1042.7559836346868 -888.8170718237594 3385.262798193759
1103.573333818038 -3447.3432663327244 67.2934177347391
1267.2679000353849 951.2852829205789 3485.516505555341
1260.0903438396526 3409.2966368449975 305.98274787541015
1188.0934475171682 -1007.3043592807903 2913.7993973116813
1547.7781842263935 -3625.476772457195 687.0357868214437
1486.0403156423652 -154.37729876097248 3469.5672135912378
1451.289224859603 -868.8471853108879 3146.235936572041
1617.0438503717703 -3564.724294502699 194.01212380218098
1733.2890098055088 227.16444696361577 3685.004791589248
1762.6021322953295 1424.9702810091042 3403.756703737921
1867.7759637219028 2229.43504419068 2905.1442965426863
1819.3108569184333 -2392.6444345044256 2570.8746780103843
2008.9170825241326 3234.4312356957585 1923.1805899487458
1766.5104737320144 -1942.3183427592346 2619.4504109413906
2043.623889445328 914.3012158288144 3604.8598151292863
1913.0809027438427 3431.93064496931 85.67991666974305
1983.8037177265894 -988.5959036566153 3272.9557191128265
2081.347578367647 -3498.7513883905913 545.3620102600745
2220.433009328434 655.7112263829699 3671.9126879046757
2306.7007911359738 3484.389120184914 1582.7070035660417
2310.009590530199 -758.7621161194188 3709.1880582065373
2384.1929714997523 -3700.645320241178 931.1714201891444
2190.6135630363733 -605.7086375624441 3412.663629246552
2436.049614653922 -3319.2440419822324 1872.5223602845049
2192.4055221994895 1596.397688595528 2992.854560423352
2467.969621270628 1314.099121325534 3541.0270401864286
2558.809374639661 2875.487163322961 2535.967187004767
2546.1272240349504 -3564.0369481346906 1127.0690450592465
2538.633603567689 224.93600971772267 3578.9383609573756
2925.76562309633 1566.6661127504633 3783.461680942382
2582.4586412736917 1418.7609016939034 3289.04872323666
3062.6142707036497 2533.6627323467987 3228.524300468707
61.841587875860874 1206.7205876312341 3095.0782580391933
91.63881829075306 2822.8519548100076 1674.22544516123
403.0173760052873 -4035.425421126719 878.772820770102
376.48932050812164 -2234.079922211947 2350.730929130227
473.1329567052486 2594.1379255024885 2742.457551808167
512.721241016868 -3505.3052622805358 655.126719214217
583.0592698819618 608.7317924726327 3649.5815657186035
694.1800904454007 3197.172755221063 1781.4843174364898
675.9125323285172 -2198.3033008581197 2593.735259704871
736.0073854948681 2267.42773116237 2718.5237692460714
807.5743085879882 -2601.432376736516 2447.8017871688476
883.8992031526358 3703.512612278682 643.4868535508185
879.3468188279764 624.0369854583481 3416.4757925060817
1040.6704716674176 3095.6135595383244 1618.093226610403
953.5435705687697 -2396.090807313976 1979.4981290987523
1246.9153283234077 3185.5591212434847 1868.2778393650226
1330.4583575368513 -2574.7476805502524 2915.951711105844
1346.5145973276728 3656.8474351073064 812.3932768980272
1257.8452846889513 323.3148242411911 3247.9475864653186
1263.3717040581803 1715.1572094139326 2709.8126774733732
1403.9061199473547 493.80981061444623 3310.371711898971
1456.0884520964494 2583.065000431178 2215.4422139941903
1600.2690720708572 -3591.873630939893 743.4163163118453
1686.3457296734175 52.80224465401184 3722.6255415982278
1642.4489080604678 327.7078242809895 3545.8889692015205
1728.2098955676156 1958.34922722323 3042.169013094798
1699.4226993471436 -954.4876611888391 3365.2573905480485
1839.439511159676 -3707.173127090097 353.614770309491
1735.4623183277663 -642.8758779120175 3396.6983389166094
1835.3696942090003 -3192.1829635653226 1537.1457078375208
2060.7369192229335 2559.154688024395 2966.7239984135294
2008.9170825241326 -3649.8757588625667 915.7379236808981
1921.439021872878 -308.37520158468493 3533.5695458059977
1993.8730130574522 -1784.8914637451614 2989.7301655249184
1953.6317980653484 -88.77538066593561 3365.8294567294433
2013.1644891017204 -528.5564800774005 3383.9700127761457
2154.809335853438 -2849.6923943632837 2158.6751162479395
2281.102866599999 3527.1020008731316 943.0548634288203
2225.108556444582 -441.69721319358473 3452.8632425650776
2204.686095584451 -2376.737540692055 2446.6384413445894
2286.318693361379 2956.7143764252405 1871.0534723091966
2492.7368321020176 -3366.3296968177065 1618.0387425285003
2347.2466111789413 1380.6332516787606 3195.4988381094636
2551.5763994742974 2503.484951707607 2786.5891510184206
2717.031726294699 -3614.4577053651637 1290.7127860707035
2925.051150416697 -103.2948066496441 4092.6966883607697
2553.37992847001 -623.993351670456 3423.5993190020163
2732.770949109271 -3218.671874403318 1682.7285476050588
2837.9879804266293 2240.24080993378 2853.7177704719234
45.75406497137906 1195.7012222743797 3051.0699085815054
203.00711063205924 3450.3077109731903 1957.6684345411877
407.17690350348096 -984.3822550801067 3681.672524258968
371.4973252007367 -3165.3588861130484 469.5775996628899
470.8769585010911 2584.440618323765 2726.850874242718
502.2252649668872 -3422.1954707307773 699.7336351139301
646.354672977767 1151.8573674588752 3591.825247006139
735.0739594602802 3684.8872502846343 1732.8560103741297
617.7444138198551 480.78135282345596 3221.31934008059
691.0211654040958 2586.34087919024 2322.3731088327427
840.464872462599 -3374.497549680492 678.3290405108402
867.8461813012622 1269.3633962180286 3056.929271072825
1044.271882360376 2887.884208532276 2171.150339822167
