# .PCD v.7 - Point Cloud Data file format
VERSION .7
FIELDS x y z
SIZE 4 4 4
TYPE F F F
WIDTH 849
HEIGHT 1
VIEWPOINT 0 0 0 1 0 0 0
POINTS 849
DATA ascii
-43.98721176755371 644.2710046255905 229.71911674636985
-29.929238502714224 512.4026703454989 182.7005840789842
-45.34074774058758 798.7453390679835 284.79796929959303
-17.27644279196568 428.5720864102978 152.81023116900332
-19.57954950415669 643.3290879521613 229.38327008445995
-15.6189214726232 542.5440038952341 193.44767726010093
-11.113373868372506 540.6601705483757 192.77598393628114
-17.07992700781181 903.2980898186277 322.0769487715916
-8.868771258576453 567.9757540778232 202.51553713166814
31.10819844843959 3421.983274568378 1220.1309227186573
36.56214985676046 3405.028774446652 1214.0856828042793
70.82979113073733 3435.170107996387 1224.832775985396
92.18193753548358 3194.981356271934 1139.1918771983721
104.22183247830417 3417.2736912012315 1218.4516894091078
143.86854286374492 3563.2707755827614 1270.507922005142
173.8284210120792 3576.4576090107707 1275.2097752718805
178.15081726827074 3545.3743587876065 1264.1268354288538
201.03108353043467 3437.9958580166744 1225.8403159711256
211.49807714109454 3518.0587752581587 1254.387282233467
240.80361486120438 3523.7102752987344 1256.4023622049262
250.28643412670593 3576.4576090107707 1275.2097752718805
292.84275134034704 3325.907773878597 1185.8745632038479
329.5493198392265 3366.4101908360535 1200.3159696659734
397.4345084527983 3334.3850239394596 1188.897183161037
460.2958293498798 3567.980358949908 1272.1871553146914
765.339820206332 2789.015270023938 994.4419659152063
1227.0408503019405 3927.792528199872 1400.4805801642722
1139.6679544436206 3558.5611922156154 1268.8286886955925
-1526.9270960676865 2712.5190335575244 961.8339215208387
-1939.045770711757 3461.8076477612185 1227.5246677366367
-1688.6644608509077 3092.347098367699 1096.5174067094758
-1809.0420382785887 3321.3749389356203 1177.7285404584557
-1589.289960626116 2964.166907761784 1051.0659079857671
-1494.6143470741404 2928.351854504249 1038.3662245188484
-1555.4825458422094 3091.4045969661847 1096.183204512978
-1573.9945566724537 3155.494692269142 1118.9089538748324
-1466.8802231922457 2975.4769245799525 1055.0763343437413
-1482.687836934112 3052.762039504107 1082.4809144565659
-1482.8479863051173 3099.8871095798113 1099.1910242814588
-1463.6721309142433 3127.21965022372 1108.8828879798966
-1415.984417230966 3083.864585754072 1093.5095869409952
-1410.1123988124093 3081.03708154953 1092.5069803515016
-1294.7734782828566 2995.2694540117486 1062.0945804701964
-1301.2313204927764 3020.716991852629 1071.1180397756386
-1344.290772643065 3176.2297231024518 1126.2614021977854
-1269.048524130821 3205.4472665493886 1136.6216702892189
-1359.1744658528023 3514.5877262460067 1246.2399907405168
-1211.5123130059885 3209.217272155445 1137.9584790752103
-1179.643138857108 3137.5871656403747 1112.5591121413731
-1151.997996107974 3141.357171246431 1113.8959209273646
-1154.0937285225027 3214.8722805645293 1139.9636922541977
-1089.4840696589072 3048.049532496537 1080.8099034740765
-1189.0877262345873 3493.852695412697 1238.887542417564
-1156.8180773816068 3414.6825776855144 1210.8145579117438
-1131.0867839834289 3417.5100818900564 1211.8171645012374
-1044.0888216978644 3169.6322132918535 1123.9219868223004
-1015.7946906744904 3174.344720299424 1125.5929978047895
-1057.9322099419203 3389.2350398446342 1201.7910986063016
-950.7345660812775 3061.244552117734 1085.4887342250465
-953.4319948065654 3149.8396838600574 1116.9037406958453
-948.461528153461 3149.8396838600574 1116.9037406958453
-994.0454717071148 3390.1775412461484 1202.1253008027993
-953.2239110176599 3268.5948604508317 1159.0132174545756
-920.1105971067204 3243.1473226099515 1149.9897581491334
-911.5087861996203 3230.8948043902687 1145.645129594661
-986.7601056487371 3517.415230450549 1247.2425973300103
-866.9835079800215 3162.0922020797407 1121.2483692503174
-933.3770398527004 3424.107591700655 1214.1565798767224
-856.9797529800824 3238.434815602381 1148.318747166644
-911.5627174064359 3465.5776533672747 1228.861476522628
-834.1432621059064 3270.47986325386 1159.6816218475713
-864.0322385368731 3409.02756927643 1208.8093447327565
-883.2434327795098 3622.032886018612 1284.3390411412727
-813.9665228869334 3360.0174963976974 1191.430830514868
-664.4462384060505 2958.5118993526994 1049.0606948067798
-114.48437605318614 610.7409081811243 216.56302333061274
-97.26089041219316 552.3058212872513 195.84248714774546
-173.88608999008343 1055.6015696957704 374.30646007760225
-68.13687549129152 458.9981825373573 162.7564696944574
-71.09462839580712 512.7207624236598 181.80599489483538
-65.09963235088897 505.18075121154726 179.1323773228525
-62.955098689350535 494.81323579489236 175.45615316137605
-125.3623272629177 1011.3040038246086 358.5989568422029
-118.12710113299151 1034.8665388624606 366.95401175464934
-39.43915497850823 403.3905998480265 143.03854010108373
-41.45063632767472 462.7681881434136 164.09327848044884
-37.87382079216007 430.7231404919349 152.73040379952164
-34.49023818873438 432.60814329496304 153.39880819251735
-42.68511369943519 546.6508128781668 193.8372739687583
-53.38737458186288 698.3935385219338 247.64382760491364
-45.18757433996761 678.6010090901381 240.6255814784586
-33.091092311983694 551.3633198857372 195.5082849512476
-29.984255485255975 513.663263825174 182.14019709133325
-25.603429007687705 527.8007848478852 187.15323003880113
-17.314412995904064 429.7806390904208 152.39620160302377
-16.68030222210521 431.66564189344894 153.06460599601948
-19.407547605145066 638.0734488250326 226.25488702905065
-15.727386205071973 546.6508128781668 193.8372739687583
-12.972056605940033 631.4759390144341 223.91547165356562
-10.104221981164217 647.4984628401734 229.59690899402923
-5.960294166625448 660.6934824613705 234.27573974499927
31.73327372692461 3492.910194011183 1238.553340221066
36.49135177958278 3400.5450566628033 1205.8015249642758
63.707445153659975 3360.0174963976974 1191.430830514868
72.63597993664865 3524.9552416626616 1249.9162149019933
93.37769380068443 3238.434815602381 1148.318747166644
107.1232671751919 3514.5877262460067 1246.2399907405168
141.77687755644754 3513.645224844493 1245.9057885440188
177.20421356333839 3528.7252472687182 1251.2530236879848
207.5342577569241 3454.2676365491056 1224.8510501646538
207.91116706808077 3044.2795268904806 1079.473094688085
256.4390888058802 3213.929779163015 1139.6294900576997
302.8634921682058 3378.8675244279793 1198.114874444825
332.8199661826765 3345.8799753749863 1186.4177975674
400.1706494067998 3406.2000650718874 1207.806738143263
711.5099976734482 3465.5776533672747 1228.861476522628
737.434066925079 2786.0341428756224 987.9016928476716
745.9543131089072 2720.059044769637 964.5075390928215
-1676.0866911850085 3119.7194193701102 1100.0976067627007
-1635.781113687357 3052.7605080111994 1076.4860801362945
-1654.9522679003069 3130.093335214449 1103.7557306062283
-1730.6237861703307 3327.1977362568773 1173.2600836332551
-1487.3986357107312 2916.0134355176488 1028.265356744338
-1735.6908895678312 3451.684726388937 1217.1575697555877
-1466.8089258267967 3031.0695930639463 1068.837275736191
-1400.1911430238852 3061.2482573383854 1079.479090553726
-1231.6085728145802 2746.25844897393 968.4051483957026
-1240.1523301364243 2821.705109660027 995.0096854395406
-1335.1078314452238 3090.483838354248 1089.7883486582134
-1334.7171885055477 3155.5565831960066 1112.7347618585236
-1250.5628760256784 3397.928980650093 1198.2018371118531
-1273.6611508124463 3475.2618078533424 1225.4714875817872
-1247.4768622288088 3477.147974370495 1226.136601007883
-1105.9914040476785 3096.142337905705 1091.7836889365012
-1111.6217681036146 3195.166080056207 1126.7021438065385
-1154.4447603771998 3394.156647615788 1196.8716102596613
-1072.523301662936 3167.8166655574973 1117.0579991281472
-1117.9853926631574 3380.010398737145 1191.8832595639417
-1044.0888216978644 3171.588998591802 1118.3882259803393
-963.2007940349963 3087.654588578519 1088.7906785190694
-982.6403751030939 3165.930499040345 1116.3928857020514
-968.0437679627336 3216.8569950034603 1134.350948206642
-934.8081088151849 3207.4261624176984 1131.0253810761624
-939.6305254963719 3313.9945706368103 1168.6042896505835
-975.8568393677382 3461.115558974699 1220.4831368860675
-873.1854764424718 3186.6783307290216 1123.709133389107
-948.792019866783 3482.806473921952 1228.131941286171
-924.4540041361435 3516.757471230696 1240.1039829558981
-915.6497101726691 3757.24370216763 1324.9059447831316
-706.882129126638 3019.752593961032 1064.8465951796154
-693.5086591710395 3067.849840148419 1081.806987545062
-674.1832651555499 3003.7201785652364 1059.1931310577997
-650.0169538372627 3003.7201785652364 1059.1931310577997
-118.32254223025924 605.4594520059284 213.50140977679982
-134.8925020124989 780.8729381011038 275.3569584037231
-173.42032367760999 1053.423999829629 371.46584847458786
-154.9524405271923 950.6279246448221 335.2171667523586
-84.27268138002009 538.5005406470173 189.88988315039362
-143.71643938662254 927.993926438993 327.2358056392072
-74.29297923177782 500.77721030396873 176.58761462847463
-157.91161939735716 1088.318080396949 383.7704468573629
-72.40151494720064 522.4681252512216 184.23641902857804
-116.9957087615493 875.181263958725 308.6126297085206
-63.88508697120821 496.06179401108767 174.92483106323473
-64.15424342629055 504.5495433382736 177.9178414806665
-52.18658323204876 525.2973750269502 185.23408916772195
-79.97364713099205 846.8887662014387 298.6359283170814
-42.12600311101769 470.5985460295299 165.94579981093943
-40.60869187780839 462.11079670234403 162.95278939350766
-34.41509605760424 431.93213242790523 152.31097457597247
-51.95870704224256 695.0523615706685 245.09429751635741
-48.338967219842374 692.2231117949399 244.0966273772135
-31.24964608371632 535.6712908712886 188.89221301124968
-26.093114375269607 520.5819587340692 183.57130560248208
-23.454569787399628 483.80171164959694 170.60159379361107
-17.314412995904064 430.04596591075284 151.6458611498765
-16.753141969799994 433.8182989450577 152.9760880020684
-15.564689106398815 541.3297904227459 190.88755328953752
-5.8922736911147435 653.5566981933151 230.46180214224654
3.028048715428484 3544.106885729406 1249.7481276342892
9.400363592193765 3761.0160352019348 1326.2361716353234
36.87568419854734 3438.48156076887 1212.501775772916
65.3335391729642 3172.5320818503783 1118.7207826933873
134.24622223897651 3470.5463915604614 1223.8087040165472
171.95142199667353 3542.2207192122537 1249.0830142081934
194.75230448318274 3334.7424023254866 1175.920537337639
208.74796123894302 3058.4190075626566 1078.4814204145823
214.49356245675563 3068.7929234069948 1082.13954425811
257.7924239002317 3300.7914050167433 1163.9484956679119
249.44529547481076 3128.2071686972963 1103.0906171801323
277.77270913502394 3100.857754198586 1093.446472501741
439.53562163635746 3692.1709573258713 1301.9595315828212
393.7863883260226 3263.068074673695 1150.6462271459927
411.0001761379193 3360.2056503070444 1184.8995685899342
475.33761192871344 3736.4958704789533 1317.5896970960762
747.281651065252 2742.4861159396255 967.0749215435108
-1664.4745097201571 3051.8036933548624 1070.1636403960006
-1722.194275495116 3207.5079634239883 1124.7638261304905
-1509.45135296958 2952.719157856328 1035.4180676558708
-1667.4014119454903 3317.916445836641 1163.4803214694923
-1369.7696857683688 2781.9162919017112 975.5233184562182
-1482.687836934112 3056.5220045690785 1071.818191478864
-1549.2515140960888 3314.141796865268 1162.1566806032017
-1279.4086456598416 2845.1416621722046 997.6943029665869
-1263.7522031490266 2819.6627816154387 988.7597271191248
-1278.8841876431363 2962.1557802847597 1038.7271698215973
-1176.9271185481703 2794.1839010586727 979.8251512716629
-1236.4375170904111 3067.8459514831966 1075.789114077736
-1233.973381152786 3120.691037082415 1094.3200862058052
-1189.323218578089 3079.1698983973147 1079.7600366766078
-1130.4699659216305 3073.5079249402556 1077.774575377172
-1109.093885106058 3093.3248320399625 1084.723689925198
-1220.8689760185157 3419.831968063705 1199.2186248593403
-1094.560276975696 3148.0572421248676 1103.9164824864124
-1133.6692726935023 3600.0714564467535 1262.4224762247193
-935.5462813168259 3000.8459322413305 1052.2944887010767
-880.1104276466399 3021.6065015838803 1059.5745134656754
-1007.8742831029691 3723.6912102592105 1305.7717145957386
-888.2592375488877 3381.141816107134 1185.6513059798608
-857.2724445140702 3519.8601658050825 1234.2951078160427
-836.6451673571602 3551.944682061751 1245.5460551795134
-692.0163257513661 3063.1276402689805 1074.1345629948726
-657.5681711973816 3040.4797464407443 1066.1927177971286
-175.99616601618376 916.2960378007333 321.3138202920583
-100.88052272587854 538.831140663459 188.94973366299206
-83.80663108769114 530.3381804778703 185.97154171383806
-157.91161939735716 1088.9862282410363 381.8703899248561
-72.66289225747934 524.6762070208113 183.9860804144021
-71.03272020923727 519.0142335637521 182.0006191149661
-109.96955822635287 876.6622236013195 307.41559119600635
-56.283799366886704 523.7325447779681 183.65517019782942
-51.999198732113214 523.7325447779681 183.65517019782942
-81.84385491467894 867.2256011728877 304.1064890302797
-41.19737378392111 460.5071745074746 161.4841856874608
-41.27169092887465 469.94379693590645 164.79328785318748
-38.02191835185097 477.49309487865196 167.4405695857688
-30.204323415422994 518.0705713209089 181.66970889839342
-20.66562484191936 426.5353337651199 149.57141789084486
-16.569516271453246 545.4367763633613 191.26610517900073
-17.65263520603768 614.3241200909139 215.4225509888053
-11.17145770392149 544.4931141205182 190.93519496242806
-12.25337829131859 649.2396230761118 227.66622900199394
-11.20242643566828 650.183285318955 227.99713921856662
2.8258027794059855 3309.423485651052 1160.5021295203383
37.36115672776574 3485.8883250627277 1222.3823400194267
62.17060355949034 3283.000942851443 1151.2366434563037
72.38350193152127 3517.029179076553 1233.3023771663247
91.85582219042881 3189.5783808099677 1118.4765320156098
119.43536185065466 3089.55018306859 1083.4000490589071
142.72763451430998 3541.5643973904757 1241.906042797214
211.32271253390377 3098.0431432541786 1086.3782410080612
248.09165805589407 3113.1417391396694 1091.6728044732238
298.5652520037523 3397.1840742354684 1191.2767796615963
276.5899786216753 3089.55018306859 1083.4000490589071
937.9399501994144 2380.8598386933572 834.8864764128353
-1770.1758439367056 3198.1353000912936 1115.2128058402004
-1691.998455779293 3112.2096100091244 1085.249899040242
-1687.1133701523506 3135.815568822907 1093.4814668424285
-1734.8611942616292 3233.072119135692 1127.395526187436
-1792.6242338238924 3508.7897180806754 1223.540238116972
-1757.7471917441449 3572.053687701613 1245.6008398268314
-1488.2588385566844 3079.1612676698282 1073.7257041171813
-1294.8649329365608 2949.8006133702984 1028.6167125612003
-1213.6005542533592 3082.9382210800336 1075.0427549655312
-1141.974611203344 3119.7635168295346 1087.8840007369417
-1091.1684915353123 3058.3880239136993 1066.4819244512573
-1181.840612220891 3386.0387322490046 1180.7360855456034
-1071.592885072729 3083.8824594325847 1075.3720176776187
-1170.1624022939775 3444.5815101071857 1201.1503736950253
-1046.4810158498842 3152.811859168831 1099.4081956600025
-1136.077790200675 3438.916079991878 1199.1747974225007
-1064.7219600963901 3317.109332512759 1156.6999075632193
-1052.8917058030422 3296.33608875663 1149.4561278972953
-1020.8633950218195 3276.5070833530526 1142.5416109434589
-991.9458545608701 3283.1167518209118 1144.846449928071
-978.5696456254917 3343.5480063841956 1165.919263501668
-948.8261075066212 3259.510793007129 1136.6148821258846
-937.7587515411998 3311.443902397451 1154.7243312906946
-970.8664797260628 3547.503490535279 1237.0400093125577
-896.8949204860382 3296.33608875663 1149.4561278972953
-904.8668637403198 3425.69674305616 1194.5651194532763
-875.489844550349 3438.916079991878 1199.1747974225007
-871.6764275424523 3445.5257484597373 1201.4796364071128
-734.0174304871193 2938.469753139683 1024.665560016151
-852.9056411774034 3504.0685263179184 1221.8939245565348
-861.000773578296 3560.7228274709973 1241.649687281782
-751.9581830949184 3194.3583466810883 1113.8957549918505
-661.1037049152762 2928.0831312616183 1021.043670183189
-669.7381007699089 2987.570147472351 1041.7872210446985
-172.72518796909205 892.3052431609898 311.1532629226422
-196.18899014775567 1066.9893383829824 372.06686465882086
-139.6982537024745 787.4947860277941 274.6051018809351
-137.42665061654597 781.8293559124863 272.62952560841035
-180.99706489841338 1049.0488096845077 365.8108731291593
-91.4073119163613 550.4909595374148 191.96016114698457
-158.73265034743008 1095.3164889595218 381.9447460214445
-75.79941998082377 547.6582444797609 190.97237301072224
-58.91019604779572 495.72513508943877 172.86292384591235
-55.74688873082408 561.8218197680307 195.911313692034
-44.87586092180726 459.8440776924889 160.35094078658918
-82.20008496871455 871.5319994048609 303.9094832567183
-38.242644106795616 427.7399737057443 149.1560085756158
-40.96066321783301 548.6024828323123 191.3016357228097
-28.905210549442163 482.5057981537204 168.25324587668803
-31.084595136091057 533.4946691914912 186.03343232941043
-22.44872079066904 463.6210311026942 161.667991634939
-18.764398713637593 653.4129399655079 227.84979676451687
-24.466009126091947 903.6361033916055 315.1044154676917
-13.378643454782928 652.4687016129566 227.5205340524294
32.44397575588704 3577.719117816921 1247.576416099356
60.34783794780077 3188.6929165657803 1111.9201787193258
91.44817800911034 3177.3620563351647 1107.9690261742765
118.26800339640268 3061.2207389713535 1067.4697125875198
124.3970403667221 3088.603651195341 1077.018331238056
167.64805840037766 3457.8008470429045 1205.7600516642497
217.7234901028469 3118.8192784769835 1087.5547380248543
301.17387714913633 3366.209726845427 1173.821568591767
431.11539899964566 3625.875273797038 1264.3688144158161
466.8194467477597 3674.0314297771547 1281.1612127322762
468.80182408443403 3642.8715641429617 1270.2955432333902
-1788.2876613538901 3192.518348910396 1107.0083973802716
-1719.818159174695 3116.933422034743 1080.7992610113988
-1736.768111992418 3155.6706970585155 1094.231443400446
-1710.992370483126 3149.0570159568956 1091.9381439681697
-1621.1262937006613 3030.9555677136877 1050.9863683918056
-1497.8909295553467 2893.013076165621 1003.1546945186126
-1443.844007490557 2827.8210767353703 980.5493144004596
-1451.801126317913 2851.441366384012 988.7396695157324
-1556.2021968152255 3109.374929347178 1078.1783473745113
-1504.3026323723855 3049.851799432601 1057.538652484024
-1419.4865637796358 2886.3993950640015 1000.8613950863362
-1379.6916148562564 2847.662120040229 987.4292126972888
-1466.3525447048842 3035.6796256434163 1052.6244394148603
-1434.6935130412323 3015.838582338557 1045.744541118031
-1525.7089284185483 3217.0834501449835 1115.5263667001554
-1239.6444803981917 2769.242758406739 960.2372337145831
-1209.8553608745378 2748.4569035159343 953.029721213143
-1242.216593859166 2880.7305255483275 998.8957098586707
-1313.0053324410728 3055.520668948275 1059.5043377116895
-1242.5714411819429 2943.088090220741 1020.5182473629909
-1198.5250983558358 3034.7348140574704 1052.2968252102494
-1214.7156543032092 3087.6442628704276 1070.6432206684603
-1190.4166815433769 3085.7546396985363 1069.9879922592386
-1404.4409819142388 3669.648199812956 1272.4535707087823
-1284.6539199216675 3370.142927068181 1168.599867847123
-1066.6055281784375 2903.406003611023 1006.7584507693326
-1232.9968135286333 3458.0104045611274 1199.067988875938
-1118.4364679900646 3164.1740013320264 1097.1799712419443
-1204.8037581099388 3469.3481435924755 1202.9993593312688
-1168.9514163108095 3458.9552161470733 1199.3956030805489
-1146.8522472054449 3490.1339984832803 1210.2068718327089
-1123.1728577142499 3434.390114912486 1190.877633760665
-1125.8793290640954 3526.9816503351612 1222.9838258125346
-916.423479969155 2943.088090220741 1020.5182473629909
-913.9018956149636 3247.3174208952446 1126.0100212477046
-790.0871309149609 3011.114524408829 1044.1064700949767
-879.3360382661111 3456.120781389236 1198.4127604667162
-762.5078533065245 3015.838582338557 1045.744541118031
-826.8650431903922 3514.6990997178673 1218.7248411525927
-723.6600934656838 3097.0923787298843 1073.9193627145696
-749.7909481415758 3322.902347770898 1152.2191576165776
-745.9409188094687 3329.5160288725174 1154.512457048854
-81.9112752467796 524.3704301998431 181.82588355905617
-71.07501591288725 479.96428566039697 166.4280159423433
-68.49569266028183 467.68173504310334 162.16903128240145
-158.73265034743008 1095.9814396969693 380.03247734865795
-73.2282770157046 535.708169231191 185.75725401438712
-62.11569737349253 489.4124015198536 169.7041579884524
-57.67588717822286 485.63315517607094 168.39370117000877
-49.46866612770373 422.3307789177115 146.44354946107768
-56.283799366886704 524.3704301998431 181.82588355905617
-42.88579074227853 479.96428566039697 166.4280159423433
-38.70256960599289 441.22701063662475 152.9958335532959
-44.08341914820979 565.9421399814523 196.2409085619363
-37.406721227343965 536.6529808171367 186.08486821899803
-29.984255485255975 514.9223143403865 178.54974151294704
-23.77687777311705 475.2402277306686 164.78994491928873
-20.93994729557316 432.72370636311376 150.0473057117977
-16.57104260056304 429.8892716052768 149.06446309796496
-15.754502388184164 548.9355314344303 190.34385287893988
2.833054625717549 3321.957536184952 1151.8915434119667
31.09107309834411 3430.610868568703 1189.5671769422215
37.128534474181926 3468.40333200653 1202.671745126658
72.65540132165846 3534.540143022726 1225.604739449422
100.82399417943516 3505.2509838584106 1215.4486991064834
130.96302658639286 3391.8735935449313 1176.134994553174
142.651573957681 3543.988258882183 1228.880881495531
195.74369064853832 3357.860376450887 1164.3408831871814
209.28612808856764 2999.776785377481 1040.1750996396456
247.92265681376568 3180.2357982931026 1102.74941272033
290.1059031969793 3304.9509276379304 1145.9944877289702
275.74517111214055 3083.865016526645 1069.3327638500168
440.904181611275 3660.2000839534994 1269.177428662673
742.4149969529246 2828.7658883213157 980.8769286050706
768.8675034343996 2826.8762651494244 980.2217001958487
-1723.7143057470976 3216.189364234795 1108.931906558281
-1638.4974848811112 3106.525059046307 1071.1200014551769
-1549.6146656780259 2986.4615525037384 1029.722484661261
-1696.9900831572493 3279.52995430056 1130.7715414023155
-1760.0794154403804 3420.39186355129 1179.3402815778545
-1734.6570117635501 3409.0472802559293 1175.4287051878782
-1599.7058741494707 3198.227107350474 1102.738577274152
-1584.2962775212063 3242.660058590637 1118.0589181348923
-1369.1631121549644 2827.6373863686867 974.9604152015928
-1478.2184538746094 3062.0921078061438 1055.7996605944363
-1476.943259352597 3106.525059046307 1071.1200014551769
-1501.0645844940198 3167.029503288232 1091.981742201717
-1448.0572823416185 3113.1427326352677 1073.4017543493296
-1389.838528288034 3046.0206148043826 1050.2582607086365
-1205.1477789963349 2684.8847132353962 925.7397456277243
-1288.662212652195 2990.2430802688586 1031.0263434579197
-1394.1900479831654 3257.786169651118 1123.2743533215275
-1405.4759510929855 3342.8705443663243 1152.6111762463497
-1220.291154552459 3103.688913222467 1070.1421073576828
-1239.1745438820385 3306.0006486564016 1139.8985529789268
-1052.7926982158574 2843.708879370448 980.5018150873925
-1137.0646632972864 3097.0712396335066 1067.86035446353
-1126.4210829030565 3080.9997466317454 1062.3189545777302
-1110.4472638554248 3102.7435312811867 1069.8161426585182
-1111.7184384274562 3119.760406224228 1075.6835072434826
-1052.9784595777319 3020.495302389821 1041.4572138311898
-1199.225962933504 3455.370995378653 1191.400975446948
-1056.8125285402064 3312.6183222453624 1142.1803058730795
-987.0310827666466 3187.827905996393 1099.1529655833403
-1088.326660018563 3532.8923145636186 1218.1300807784528
-962.824413148701 3141.50419087367 1083.1806953242703
-941.3665137298116 3135.831899225989 1081.2249071292822
-1143.829359854253 3912.935854958206 1349.1678898426587
-962.0299849679774 3420.39186355129 1179.3402815778545
-918.4758925057539 3379.740440076247 1165.3237995137727
-994.4057843805554 3769.2377998836355 1299.6212555696256
-881.2316637994263 3487.513981382175 1202.4837752185476
-859.1110985505615 3533.8376965048983 1218.4560454776174
-834.2001363154682 3548.0184256240996 1223.3455159650878
-710.6350948340562 3043.1844689805425 1049.2803666111424
-773.8814733448735 3431.736446846651 1183.2518579678308
-130.880333805036 796.9569764990982 274.7882413958351
-124.06960331843246 786.5577751450176 271.20262970502347
-73.20359013045528 468.9094428749143 161.67849078568707
-167.06321174778142 1092.86152411976 376.8151922343836
-71.29102100999813 521.8508315865981 179.9325139389098
-48.92351519397892 412.1865263981101 142.12060883580557
-48.25131640196605 412.1865263981101 142.12060883580557
-55.80189940032711 512.3970121737975 176.6728669472629
-51.62442973224213 520.9054496453181 179.6065492397451
-41.95716141518194 469.85482481619437 162.00445548485177
-41.10594116610809 468.9094428749143 161.67849078568707
-34.79080671325494 437.711838812672 150.92165571325225
-48.79996554482725 700.5280184885312 241.53984208103654
-37.877876799837914 556.8299634139607 191.9932078080034
-31.11128337024108 519.960067704038 179.2805845405804
-29.984255485255975 515.2331579976377 177.65076104475696
-26.943976800550136 538.8677065296395 185.79987852387424
-20.93994729557316 432.9849291062717 149.29183221742878
-18.392036292932605 477.4178803464349 164.6121730781693
-15.537504877383494 512.3970121737975 176.6728669472629
-13.436727290331914 656.095067248368 226.21950122029602
2.844335275535537 3337.198252718644 1150.6553880513616
36.87568419854734 3446.862557907132 1188.4672931544658
66.16865872838555 3220.9162739411954 1110.5617300541046
103.87710756382245 3418.50109966873 1178.688352179525
137.3470181330833 3559.3630089194603 1227.257092355064
143.48824008059995 3566.926064449701 1229.8648099483817
152.55359279914276 3506.4216202077764 1209.0030692018415
196.12922971284326 3366.505092898326 1160.7602937254671
211.59321926434714 3034.676031509022 1046.3466843186602
302.4403382967719 3100.852767398627 1069.1642132601887
364.90916092228764 3506.4216202077764 1209.0030692018415
459.9809197715011 3624.594362867785 1249.748656597428
640.1183399928915 2532.6782206893054 873.2594290622089
741.4255909679753 2809.6751294843657 968.7670859174636
760.4288250749844 2781.313671245963 958.9881449425229
-1821.2436089923433 3521.769678810177 1207.4217694796066
-1435.1606823536276 2814.199515030963 964.8347473010555
-1734.6570117635501 3411.0935970425726 1169.4770079891111
-1714.6123262388355 3430.0125853789154 1175.9632920045806
-1390.128485863329 2821.7671103655002 967.4292609072431
-1711.7474634907296 3484.8776515543086 1194.7735156494414
-1633.8444164467742 3386.498912205327 1161.0448387690012
-1574.4772481777684 3313.6608071104083 1136.0726453094444
-1549.0090354017393 3270.1471339368204 1121.154192073865
-1241.2173428043238 2766.9020441901066 948.6190372623822
-1210.2712616517376 2752.71280293785 943.7543242507803
-1207.178670910039 2802.848122029158 960.9429768917739
-1273.2199886834073 2976.90281472351 1020.6167898340913
-1336.9407188919492 3469.742460885235 1189.584488437066
-1308.0422611317995 3408.2557487921213 1168.504065386791
-1209.41490725896 3395.9584063734987 1164.2879807767358
-1199.6374312560074 3443.255877214355 1180.503690815409
-1192.9919565598414 3439.4720795470867 1179.2064340123152
-1180.703106787048 3434.742332463001 1177.5848630084479
-1167.2754884725287 3442.309927797538 1180.1793766146354
-1153.6250934528694 3417.7152429602925 1171.7472073945255
-1179.68090555824 3560.553604899679 1220.7186517113184
-1157.4080069252566 3526.4994258942625 1209.043340483474
-1069.2211300463937 3289.066122273163 1127.6404760893345
-1107.15323661603 3455.5532196329777 1184.719775425464
-1126.1809308131078 3532.1751223951655 1210.9892256881146
-1049.1063016276105 3373.2556203698873 1156.5044399581727
-1112.01989425578 3593.661834488279 1232.0696487383898
-964.2729331077771 3197.309028841901 1096.1819986143084
-1124.98548701386 3749.7434882631055 1285.5814918660114
-904.506763663438 3096.0924412424683 1061.4803791315478
-889.8948175446573 3148.11965916741 1079.3176601740881
-994.7800435754627 3662.7161419159293 1255.7445853948527
-747.603903501259 2941.902686301276 1008.6171644054731
-671.5600989391733 2877.578125957711 986.5637987528776
-658.9718000300286 2923.9296473817503 1002.4551945907773
-760.7402037920975 3500.012842223383 1199.962542861817
-658.9535727937624 3077.1734529061255 1054.9940951160784
-172.07991091944953 921.3547319798852 315.88203155335395
-75.60491452216978 479.59635432628517 164.42729979214624
-75.56499626369578 484.3261014103708 166.04887079601357
-67.43731824805445 455.9476189058569 156.31944477280965
-70.43294457390596 481.48825315991945 165.0759281936932
-75.42383382217194 552.4344594212042 189.39949325170298
-118.6790063411745 879.7329576399313 301.61220671932153
-119.26502207804486 894.8681483090055 306.80123393169697
-66.31270395278256 523.1100274998731 179.3457530277256
-56.625543671918656 520.2721792494218 178.37281042540522
-56.99368512466726 531.6235722512273 182.26458083468677
-43.34356296345671 494.7315449953593 169.61632700452168
-77.42493704273095 900.5438448099083 308.74711913633774
-43.6418490064915 560.9480041725584 192.31832105866417
-28.84864457967809 482.43420257673654 165.40024239446666
-32.07490082184263 551.4885100043871 189.0751790509295
-22.814484062207438 472.02875899174813 161.83278618595855
-19.02307217313144 473.92065782538236 162.48141458750547
-18.57413566216956 482.43420257673654 165.40024239446666
-31.519730886200765 894.8681483090055 306.80123393169697
-14.734829348662576 486.2180002440051 166.6974991975605
-13.514172404397227 660.2726929383571 226.3713121398779
-12.342429005645032 655.5429458542715 224.74974113601056
3.116682392569818 3658.9323442486607 1254.4473285917588
58.25701856968626 3083.7950988238454 1057.2642945214927
98.7924150752172 3253.120044434112 1115.3165364599427
118.88816257522404 3082.8491494070286 1056.9399803207193
125.842190942673 3130.146620247885 1073.1556903593923
174.78981075167718 3611.634873407804 1238.2316185530856
170.76730836979831 3412.985495876207 1170.1256363906582
201.8716586366806 3372.3096709530705 1156.1801257573993
303.1779976584713 3110.281682494725 1066.3450921431497
829.1827569138511 3034.605729149355 1040.3999560812726
866.4944195407429 3081.9031999902113 1056.6156661199457
-1722.133190306469 3079.9565912350154 1049.944472868915
-1648.91991781336 3088.4752173324696 1052.8484372990995
-1538.5979607900852 2928.514349502501 998.3184385545245
-1715.9448994983745 3274.938477465628 1116.4129920486926
-1823.4397650577973 3508.7274381401976 1196.1106825215327
-1743.4187247146253 3420.701635133173 1166.1030500762934
-1407.0637158647764 2768.553481672532 943.7884398099496
-1690.6388036364258 3374.3224486025906 1150.2925770675113
-1333.5274756293143 2716.4952110769805 926.041990514378
-1371.4519170900278 2835.755976441336 966.6974925369603
-1304.7936275478567 2706.08355695787 922.4927006552635
-1139.4071068552469 2549.9087451712144 869.2533527685484
-1148.9646588028636 2623.7368380158155 894.4210444968138
-1196.0772137821277 2788.4302758999247 950.5643568137134
-1042.4716193001589 2594.3949036801405 884.4185003484007
-1260.9690564737807 3354.445654375198 1143.5166600637476
-1036.408755984645 2826.2908363330534 963.470865392311
-1218.8476697668293 3424.4876911764864 1167.393700934153
-1116.6240072035375 3150.945142047132 1074.1441764537853
-1200.866490926573 3464.241279631271 1180.9455349416805
-1204.805368151365 3555.10662467078 1211.9211555303148
-1164.481238810577 3451.9365974905045 1176.7509196536364
-1148.8672436323684 3486.01110188032 1188.3667773743741
-1150.1906742288077 3592.02067109308 1224.5050013944474
-1033.5138636056633 3325.1037200395235 1133.5141159153343
-1117.2887434520433 3612.843979331301 1231.6035811126762
-1111.1961758741988 3686.672072175902 1256.7712728409415
-919.7976698819172 3067.651909094249 1045.7498575808706
-1130.379733658146 3789.8420993561776 1291.9415087176199
-994.5301004243643 3462.3482516096146 1180.3002095127506
-931.3412408377527 3296.7082997146767 1123.8342344813861
-931.3655167007499 3471.813391717897 1183.5268366574
-796.3726284241568 3022.219236574494 1030.2620472865535
-989.1583471448679 3776.5909032045824 1287.4242307151108
-729.4192786109691 2984.358676141366 1017.3555387079559
-857.5022762686316 3531.4437744000747 1203.8545876686912
-725.6469576637287 3111.1915535923467 1060.592342446258
-653.2156568398601 2900.1189291776545 988.6385571205763
-695.3507146109831 3109.2985255706903 1059.947017017328
-770.4282576878074 3573.0903908765163 1218.0517471051487
-647.4071990927958 3025.058778606979 1031.2300354299484
-74.3618447742909 538.566472161255 183.59508453055088
-65.34254142682512 509.2245378255803 173.59254038213774
-61.491023684175346 518.6896779338624 176.81916752678714
-59.76080471803135 511.11756584723673 174.23786581106762
-45.300434937534924 416.4661647644151 141.97159436457363
-45.52089383033426 467.5779213491388 159.3953809456804
-39.86281794535885 455.273239208372 155.20076565763617
-87.0217254576913 1012.7699915861913 345.24910447748584
-45.26093952612524 582.106116659353 198.43756939593814
-29.188040398262537 488.4012295873595 166.49396066390906
-50.672567822484574 923.797674568339 314.9188093177815
-26.471275453172066 530.0478460638011 180.69112010036642
-23.043086106918935 477.04306145742095 162.62200809032979
-42.44792075340082 909.5999644059158 310.07886860080737
-18.985101969193053 473.2570054141081 161.33135723247003
-31.952877293727838 907.7069363842593 309.4335431718775
-15.078833146685826 497.8663696956417 169.72058780855846
-15.890083303745131 554.6572103453346 189.08035067645486
-15.345195809419842 604.8224529192302 206.1814745430967
-13.514172404397227 660.6667795580948 225.21857469652815
65.35150825439959 3461.4017375987864 1179.9775467982859
72.07275977136447 3512.5134941835104 1197.4013333793926
138.2225369737723 3586.341587028111 1222.5690251076578
145.8841476144133 3630.827745537037 1237.73417268751
171.58517828635047 3547.534512584154 1209.3398538145952
223.72192715987356 3212.4685527509655 1095.1172528940065
300.68839731273573 3086.5821893108127 1052.2031118701696
-1789.6528136418153 3155.656304349466 1069.6061372390632
-1698.3175807293974 3039.1659905934685 1030.1218770708745
-1707.4592507059986 3094.09638244589 1048.7404712965244
-1743.735200659212 3208.692544758701 1087.5827109741733
-1706.48729622464 3189.7510303268314 1081.1625060687768
-1651.646907039542 3188.803954605238 1080.841495823507
-1424.512863117299 2757.8845012802058 934.7818342257358
-1700.966912934081 3339.3889943386007 1131.8821248214094
-1614.2873737947807 3223.8457563041966 1092.7188748984906
-1602.6322034475322 3256.993406559968 1103.9542334829346
-1375.3454104051464 2803.3441359166923 950.1903259986875
-1263.7193265757312 2622.4526730923385 888.8773691521505
-1445.9301476985102 3046.7425963662163 1032.689959033033
-1640.7442082757993 3556.269334583507 1205.3934709881999
-1194.001566201514 2621.505597370745 888.5563589068807
-1227.1421386368672 2852.592073439553 966.8828587527184
-1026.117631839412 2555.2102968592017 866.0856417379929
-1196.612971680008 3109.2495939913856 1053.8766352208415
-1401.0898333043494 3699.277768544122 1253.8660180239438
-1252.429762637615 3333.7065400090396 1129.9560633497906
-1394.027067667126 3725.7958887487393 1262.854304891499
-1169.3439715044437 3190.6981060484245 1081.4835163140467
-1027.5697697056726 2815.6561202974076 954.3634591871952
-1072.0935615043386 3080.8373223435815 1044.2463278627467
-1196.9292237432073 3454.932232373005 1171.0453747443285
-1001.1506334617454 2902.7870866840076 983.8964017520193
-1178.8231437583245 3480.5032768560286 1179.7126513666137
-1037.7477914517622 3242.7872707360657 1099.1390798038872
-980.591378193436 3172.7036673381485 1075.3843216539199
-897.2302883502838 2978.553144411486 1009.5772213736054
-898.9796829200012 3080.8373223435815 1044.2463278627467
-929.5857171458264 3203.01009042914 1085.6566495025545
-830.0966737583472 3060.0016564685247 1037.1841024668106
-751.9308714314914 2962.4528571443966 1004.1200472040184
-868.8098566653601 3444.5143994354767 1167.5142620463603
-859.8958003796295 3520.280457162955 1193.1950816679464
-788.7825816547692 3250.3638765088135 1101.7071617660458
-829.0877986828394 3532.59244154367 1197.3682148564542
-774.0946638333982 3438.8319451059156 1165.5882005747412
-766.0499957921303 3427.467036446794 1161.7360776315033
-111.94651922518347 676.2120652177427 229.20131512265638
-74.01315633448299 501.00305672294945 169.8144197477384
-69.18756834371902 473.5378607967386 160.50512263491342
-72.06592341228072 528.4682526491603 179.12371686056338
-71.1723592492928 554.9863728537777 188.11200372811854
-65.71313158431256 518.9974954332255 175.9136144078651
-60.31414550245757 516.156268268445 174.95058367205564
-52.3739677319843 529.4153283707537 179.4447271058332
-39.779943063975566 454.5963463648691 154.0849177295169
-40.69804806170286 523.7328740411929 177.51866563421424
-40.30442498439174 579.6103416152081 196.45827010513403
-32.41162972346063 477.3261636831125 161.78916361599275
-28.84864457967809 483.00861801267337 163.71522508761169
-30.644459275757026 527.5211769275668 178.80270661529354
-27.08578720476356 542.6743884730624 183.93887053961078
-17.16253218015052 428.0782261602517 145.09663086196173
-21.451305696113472 557.8276000185581 189.075034463928
-15.394169961540472 508.5796624956973 172.382501709897
-13.991950485891616 488.69107234223424 165.64128655923065
-20.3755582795144 754.8193501100013 255.845165480052
30.84275552195965 3411.366749179705 1156.2789034619163
87.34455991717105 3043.9013692014355 1031.7269282972236
97.81569448418568 3224.7928320257897 1093.0398851437603
129.03673432109082 3213.427923366668 1089.1877622005225
173.91998193965995 3597.94066633362 1219.5179217800721
170.7199781845517 3416.102127787672 1157.8839546882655
203.67477997138286 3502.2860184526785 1187.0958870078198
206.85474586249487 3459.6676109809723 1172.6504259706776
299.9507379510363 3080.8373223435815 1044.2463278627467
664.8758096290367 3254.1521793951874 1102.991202747125
877.3093718167827 3350.7539029977224 1135.7342477646473
835.386119185027 3060.9487321901183 1037.5051127120803
-1811.7788205788147 3188.7902520072016 1074.6356260164878
-1943.9551519474553 3551.7342836621074 1196.9492797354521
-1585.1440975158407 3012.5302261904585 1015.2352615472258
-1776.2999081907512 3384.950603319383 1140.7424832484085
-1677.154967379921 3239.962517566901 1091.8808931204671
-1829.0706027457352 3543.205572735491 1194.0750685514556
-1700.966912934081 3341.359414138898 1126.052070530204
-1706.7562611583683 3362.207374181739 1133.0779200910843
-1631.5252527681914 3317.6685504538523 1118.068150574658
-1692.7175811734876 3514.7765363134354 1184.4943646048005
-1569.0650068927873 3277.867899462975 1104.6551650493407
-1436.6889365674642 3115.8223918572594 1050.0451525534063
-1141.0712597609663 2548.189297963556 858.7504304185247
-1345.323934959156 3497.7191144602025 1178.7459422368072
-1304.0487932238202 3403.90329426742 1147.1296192128452
-1228.9542010252608 3456.970828921923 1165.0135999132683
-1202.6035677618602 3457.9184634693247 1165.3329567114902
-1205.4599693071666 3481.609327154371 1173.316876667036
-1119.882619571922 3501.5096526498096 1180.0233694296946
-1019.9808041903885 3285.4489758421896 1107.2100194351153
-916.4870463055665 2967.04376791517 999.9061352325775
-922.6209070031217 3064.6501262975603 1032.799885449427
-938.8123085372978 3134.7750828052963 1056.432288517843
-923.0224841539515 3165.0993883221554 1066.651706060942
-896.3524265691133 3194.4760592916127 1076.551766805819
-851.2201714712938 3121.5081991416705 1051.9612933427372
-853.476060113039 3148.041966468922 1060.9032836929487
-821.0644199099042 3119.612930046867 1051.3225797462935
-883.301050345154 3376.4218923927665 1137.868272064412
-864.9877621625706 3431.384696142073 1156.3909663612785
-788.4113230276506 3229.5385375454807 1088.367968340027
-679.0660303540095 2914.9238678080687 982.3415113303764
-706.300088482525 3139.5132555423056 1058.0290725089521
-781.2905594000422 3497.7191144602025 1178.7459422368072
-75.86017203035084 487.08415736454725 164.14939428602517
-65.08295025939695 471.9220046061178 159.03968551447576
-68.71099342666258 542.994595661256 182.99144538111366
-61.37881378694145 518.3560974288081 174.68816862734587
-56.38521161799821 526.8848083554246 177.56237981134242
-47.220893983756866 477.60781189052886 160.9558263038068
-35.4670858934262 447.28350637366987 150.73640876070795
-36.945722902359094 531.6229810924339 179.15916380245162
-23.729607638379242 475.71254279572514 160.31711270736312
-22.814484062207438 472.86963915351964 159.3590423126976
-21.984748080325556 548.6804029456671 184.90758617044472
-19.302533139117386 502.24631012297675 169.2591030575746
-15.998548036193903 559.1043829670873 188.42051095088493
-12.342429005645032 656.7107413494772 221.31426116773434
-6.796433888417047 640.6009540436459 215.88519559796308
-2.609750226924809 3316.7209159064505 1117.748793776436
38.46358392953251 3603.8541837692087 1214.5139036376534
48.78249355092536 3497.7191144602025 1178.7459422368072
58.45359133173122 3099.7126045514283 1044.616086983635
116.77232537689234 3033.3781862332994 1022.2611111081062
155.0584308580227 3209.638212050042 1081.6614755773683
165.84496910415004 3320.5114540960576 1119.0262209693235
203.28924090707793 3497.7191144602025 1178.7459422368072
240.8679836435784 3546.0484763776963 1195.033138946121
253.78002933574345 3648.3930074970954 1229.5236731540797
303.6390347595335 3120.5605645942687 1051.6419365445154
411.0825740999586 3205.8476738604345 1080.3840483844808
664.8758096290367 3256.0723048727323 1097.3099586902383
859.4557045553897 3284.501341294788 1106.8906626368935
770.1523755992299 2840.0607385633234 957.1123242708511
805.1447281130443 2951.8816151567407 994.7964264610281
847.8772895935815 3021.0589371170754 1018.1094727312224
-1829.3990045810394 3229.536797192826 1082.0943006861758
-1865.0268477688987 3341.4232746058483 1119.5831813323791
-1785.42426537391 3289.2727978455414 1102.1095505227079
-1772.5942560090712 3274.1017500607245 1097.0263124689855
-1456.7391404633902 2711.8247915359607 908.6288021028956
-1681.261589508136 3154.6297487552943 1056.9958127959208
-1776.617936284662 3378.4027035813383 1131.9735740883277
-1677.42259877377 3251.3451783835 1089.4014553884017
-1798.8955242005638 3535.8023243488105 1184.7121688956986
-1701.5461507566608 3402.1074657451145 1139.916133547269
-1663.5427919768956 3335.734131686542 1117.6769670622332
-1364.1939611315913 2783.8872685138394 932.7741828580774
-1710.6528084664333 3543.3878482412188 1187.2537879225597
-1458.137684510459 3029.4686045305575 1015.0590988527102
-1598.7483790374886 3372.7135606620323 1130.0673598181818
-1578.5822481111736 3340.475084119297 1119.2654789540213
-1138.5864919726992 2494.689170115774 835.8749574589924
-1194.753520404018 2652.0887908832456 888.6135522663633
-1228.6479752837758 2754.493363430757 922.92540912899
-1212.3025030638025 2891.9809839806576 968.9922539908501
-1040.6768103212196 2584.767266338122 866.0566834029697
-1275.3186112186036 3412.537561097176 1143.4108597092031
-1195.616801348752 3455.2061329919725 1157.7074667352977
-1169.2000976868278 3456.1543234785236 1158.0251691136555
-1032.2923416135227 3229.536797192826 1082.0943006861758
-1045.870135245697 3370.81717968893 1129.4319550614664
-1062.2585407355161 3440.9832756937067 1152.9419310599328
-945.4439350056726 3142.3032724301306 1052.8656818772713
-1133.2028598660834 3806.0366130158554 1275.2573467276304
-1005.3759872311604 3449.516990072666 1155.8012524651517
-890.9644026618984 3159.370701188049 1058.584324687709
-886.8814901303828 3254.1897498431526 1090.3545625234747
-818.8197115930182 3112.909367347049 1043.016908148184
-839.1886242687408 3330.993179253787 1116.0884551704448
-784.7098614171922 3216.2621303811115 1077.6464673891685
-704.4343277307306 2906.203841278923 973.757789666215
-692.1660603480863 2952.665175119924 989.3252062057402
-672.4431496938599 2888.1882220344532 967.7214444774196
-708.4745332733518 3173.593558486315 1063.349860363074
-648.4200388911262 3035.1577474498636 1016.9653131228562
-123.59301803954625 762.3451511870323 255.43271219955525
-74.38429319707552 477.88800522172176 160.12199869225853
-81.56837456144345 552.7950536592535 185.22048658251333
-65.34432756967566 474.0952432755176 158.8511891788279
-64.44604978983527 473.14705278896656 158.53348680047026
-55.99054200328324 437.11581430002724 146.46079642287933
-62.388702862046514 527.1939105223756 176.64252236685664
-47.58730746065459 407.72190921694516 136.612022693792
-55.87815036244067 522.4529580896204 175.05401047506834
-60.37152353565915 582.1889587423357 195.06926031160066
-48.90735448317675 494.95543397964036 165.84064150269631
-42.76343879377374 489.2662910603342 163.9344272325504
-35.767654417946765 451.33867159829276 151.22633209824417
-38.58527348031027 568.9142919306212 190.62142701459348
-50.4648933641957 921.6411529276062 308.80671176364143
-23.06782575204994 462.7169574369052 155.03876063853602
-22.63160242643824 469.35429084276245 157.26267728703962
-45.17786881183979 1005.0819157440973 336.76452105911517
-19.061042377069825 475.9916242486197 159.48659393554323
-19.302533139117386 502.54095787204864 168.38226052955758
-16.626850237790453 549.9504821996004 184.26737944744036
-10.177760714651585 656.1478166933164 219.85004582349782
-2.8095825300150516 3572.7817533243006 1197.102561651647
3.10540174275183 3654.3261351676897 1224.4249661904055
30.294744318904286 3354.6979414175626 1124.0310146293862
33.315552317612436 3123.33946269911 1046.511634310118
57.988964803261325 3076.8781288581094 1030.944217770593
95.06262308346744 3316.770321955521 1111.32291949508
101.11930824796876 3337.630512659644 1118.3123718189483
122.82799735832444 3192.5573682173354 1069.7039079302272
128.39021958974436 3201.091082596295 1072.563229335446
158.5377461060917 3283.583654926235 1100.203336252562
200.62588683022705 3359.438893850318 1125.6195265211745
411.0825740999586 3207.7284160021522 1074.7871459839496
663.9082953542563 3253.241559356602 1090.036860145117
906.9602817969378 3576.574515270505 1198.3733711650777
878.3012422201934 3358.490703363767 1125.301824142817
936.1578592952934 3454.2579425054214 1157.38976435694
-1904.4938811058032 3457.22145009453 1151.675234172496
-1437.1830359366213 2698.2266202164774 898.8376415989512
-1601.709691263591 3015.1069616905643 1004.3973364984062
-1432.6763817182402 2733.3301310983375 910.5313802554776
-1409.8108734278715 2726.6889263369044 908.3190513204592
-1630.3392891121007 3170.7009018155654 1056.2290429759828
-1397.9238148044583 2757.0487195320266 918.4325550234009
-1407.522010993804 2815.8708188475757 938.0274684478507
-1364.0315380898303 2776.9723338163253 925.0695418284565
-1303.7032910121493 2702.0215943658677 900.1018295618189
-1252.766179649831 2604.301010019068 867.5489895179751
-1172.00225988783 2577.7361909733363 858.699673777901
-1258.6156029940596 2813.9733317728806 937.3953744664168
-1170.1036594173581 2724.791439262209 907.6869573390253
-1477.5339684371793 3464.811398393311 1154.2036100982314
-1056.3289560377164 2625.173367840715 874.5020233137476
-1027.2539214737285 2611.890958317849 870.0773654437105
-1368.4218372455307 3648.8676446387385 1215.516726297316
-1153.8582498496148 3509.4023446486462 1169.057818661927
-1115.3364113733892 3491.3762174390426 1163.0529258383053
-1004.9370277100363 3161.2134664420896 1053.0685730688135
