# .PCD v.7 - Point Cloud Data file format
VERSION .7
FIELDS x y z
SIZE 4 4 4
TYPE F F F
WIDTH 854
HEIGHT 1
VIEWPOINT 0 0 0 1 0 0 0
POINTS 854
DATA ascii
538.694630171816 2748.9329826825438 2341.514137629763
543.8742708265692 2614.1888292804915 2226.7403900915556
545.4200454949375 2500.7601351736794 2130.1229415989396
563.1798124779509 2558.6163818321875 2179.40432472269
575.971516128389 2480.9672086852424 2113.263521056604
578.380033463676 2275.425279766858 1938.1849231169654
634.8298607324685 2385.0476418566627 2031.5601753514395
710.8357027386999 2650.72961664376 2257.8654741697133
766.3672691999103 2815.924426181869 2398.5767917730527
703.1661222975656 2528.1657256961307 2153.4667546575583
640.8234788146709 2209.195102670934 1881.770708225304
747.4874550875807 2559.3776482355893 2180.052763974318
717.0277290887592 2374.389912209043 2022.4820258286434
817.7670246507221 2690.3154696206343 2291.584315254385
837.7211272919288 2669.000010325394 2273.4280162087925
742.9764768697079 2352.3131865104015 2003.677287531423
908.042333851975 2857.032811965546 2433.5925113609806
917.2321555540642 2815.924426181869 2398.5767917730527
832.224160299674 2524.3593936791235 2150.2245583994168
958.4194708966833 2822.775823812482 2404.4127450377073
1022.5432315234356 2894.334865732216 2465.366034690767
804.6347883311706 2216.0465003015465 1887.6066614899585
1116.0561989508494 3057.2458760601207 2604.1320345392214
941.5525919765952 2448.232753338981 2085.3806332365875
1069.3813918747048 2698.6894000580496 2298.7171470222956
1018.8462673824858 2558.6163818321875 2179.40432472269
1088.4376061555463 2606.5761652464776 2220.2559975752724
1052.9146324098126 2509.8953320144965 2137.9042126184795
1151.0591648621175 2658.3422806777744 2264.3498666859964
1207.5964663900202 2728.3787897907055 2324.006277835799
1065.9639655826895 2397.989170714487 2042.5836426291205
1383.107187600462 3045.8268800090996 2594.405445764797
1053.660387553708 2263.245017312435 1927.8098950909127
1205.6539948267157 2579.170574724026 2196.9121845166537
1234.4251604204815 2608.8599644566816 2222.2013153301573
1262.493667207152 2646.923284626753 2254.623277911572
1121.7007698932161 2342.416723266183 1995.247577260255
1437.600248476042 2990.2544325607955 2547.0693803959316
1416.7614547007406 2901.186263362829 2471.2019879554214
1402.8422379877636 2861.6004103859545 2437.4831468707503
1177.6592329937207 2356.88078493081 2007.5679230411927
1309.0698095972957 2590.5895707750474 2206.6387732910785
1331.8435294709755 2606.5761652464776 2220.2559975752724
1334.3931957582133 2602.008566826069 2216.3653620655027
1474.841474095925 2824.2983566192847 2405.709623540964
1257.5044769743809 2399.51170352129 2043.880521132377
1186.8997918556945 2225.1816971423636 1895.3879325094981
1182.4855144157145 2209.195102670934 1881.770708225304
1446.6496708145914 2603.5310996328717 2217.6622405687594
1365.7264255711864 2449.755286145784 2086.6775117398442
1227.0197002217174 2123.9332654899745 1809.1455120429353
1179.728135494846 2035.6263626954092 1733.9265588540534
1594.8937262530844 2700.973199268254 2300.6624647771805
1327.8466730419877 2221.3753651253564 1892.1457362513565
1670.907500555718 2681.9415391832185 2284.4514834864735
1537.114909933587 2432.246158867551 2071.7634089523935
1664.0031990197729 2625.607825331513 2236.46697886598
-1428.6503951558775 2121.75080465222 1800.9060283528556
-1501.3742930544813 2295.5773168551327 1948.4470180993349
-1625.207710750192 2518.9596329755427 2138.0501321156435
-1786.5453030703925 2776.649813346527 2356.773178318757
-1598.6634741302655 2491.5133415750824 2114.754186366199
-1613.6074792197423 2687.4493662950326 2281.0613546330637
-1319.8542045709694 2204.852075836946 1871.440975205339
-1625.6305410580012 2765.9762555796815 2347.71364386064
-1372.7991776386755 2372.5794121730896 2013.8050881186084
-1613.3987758613416 2797.234531896872 2374.24513763084
-1493.3646756465466 2639.4183563442275 2240.2934495715367
-1716.006606726828 3145.649953286044 2669.9742267279494
-1165.9587248241182 2144.6227141526033 1820.3193164773925
-1361.5899825114245 2547.9307183426945 2162.64029707339
-1324.7793443893695 2487.701356658352 2111.518638345443
-1038.03361714344 1976.8953778164594 1677.9552035641232
-1241.3182678912312 2380.965778989897 2020.9232937642719
-1117.0287406455939 2230.7735732707133 1893.4427017464807
-1016.2291743050072 2037.124739500802 1729.0768622920698
-1087.692552381588 2330.6475780890537 1978.214059890291
-1179.9974924584467 2538.7819545425414 2154.874981823575
-1127.6932512371438 2477.0277988915063 2102.459103887326
-916.621267830287 2021.8767998338797 1716.1346702090455
-1062.8702040117043 2405.3624824569724 2041.6308010971109
-1200.626143424625 2777.4122103298732 2357.4202879229083
-1321.5030090836033 3098.381340318585 2629.8534312705733
-1296.8658422353485 3082.3710036683165 2616.264129583398
-802.0775628988674 1915.1412221654246 1625.5393256278742
-958.2731937112778 2342.0835328392454 1987.9207039525595
-1060.5433883199241 2604.3480951103065 2210.5264077805805
-1056.5387853390312 2657.715883944534 2255.824080071166
-890.0267613362296 2249.833497854366 1909.6204418502614
-1019.904063863995 2725.569215462338 2313.416834840625
-985.0718025794923 2646.2799291943425 2246.1174360088976
-938.4983102355746 2589.1001554433847 2197.584215697556
-890.0054855464772 2468.6414320746994 2095.3408982416627
-962.0918129584365 2743.1043460792985 2328.300355736103
-769.7835286020714 2207.139266786984 1873.3823040177929
-820.579982217923 2523.534014875619 2141.9327897405506
-756.4982264689588 2399.2633065902037 2036.4539242639012
-720.4648137758389 2299.3893017718633 1951.6825661200908
-862.800694319371 2788.848165080065 2367.1269319851767
-682.370479292835 2263.556643554596 1921.2684147249834
-650.8228081885667 2232.2983672374057 1894.7369209547833
-786.3566970484337 2715.6580546788387 2305.004409986659
-783.1584880095708 2723.2820245122994 2311.4755060281714
-777.9685025136002 2724.0444214956456 2312.1226156323223
-661.5300858923257 2365.7178393229747 2007.9811016812473
-675.2416376283215 2432.046376874086 2064.2796372424036
-715.5288666101861 2672.9638236114565 2268.7662721541906
-607.7038789982439 2287.1909500383254 1941.3288124536714
-537.2276791520801 2204.0896788535997 1870.793865601188
-624.6029526765554 2583.7633765599617 2193.0544484684974
-532.4936873831837 2297.864507805171 1950.3883469117884
-537.8740059017714 2341.3211358558992 1987.273594348408
-574.2033737315139 2613.49685891046 2218.291723030395
-489.955884806816 2250.5958948377124 1910.2675514544126
-454.3780247408584 2188.079342203331 1857.2045639140122
-428.97153585448456 2085.918146434953 1770.4918769577482
-475.6995608002398 2432.046376874086 2064.2796372424036
-456.2512340392231 2486.17656269166 2110.2244191371406
-431.8688016014941 2379.4409850232046 2019.6290745559693
-519.5578265089453 2927.6044160490565 2484.9008799406993
-363.70652725281474 2121.75080465222 1800.9060283528556
-489.99661904335676 2892.5341548151355 2455.133838149743
-371.52943164434583 2332.172372055746 1979.5082790985934
-381.69498897292834 2490.7509445917367 2114.107076762048
-306.55743924300555 2082.8685585015683 1767.9034385411433
-389.55191223605624 2683.637381378302 2277.8258066123076
-318.84011749457983 2396.976115640165 2034.5125954514474
-265.6614107547645 2197.990502986831 1865.616988767978
-316.7468468101674 2665.3398537779954 2262.2951761126783
-254.19117308070994 2295.5773168551327 1948.4470180993349
-243.23777685993394 2237.6351461208283 1899.2666881838418
-228.50722076675655 2318.4492263555157 1967.8603062238715
-250.7382454723719 2597.4865222601916 2204.702421343219
-214.4300780215351 2482.3645777749293 2106.9888711163844
-209.4537262089509 2483.1269747582755 2107.635980720536
-159.74229861374693 2153.00908096941 1827.437522123056
-155.4229756804553 2153.7714779527564 1828.0846317272071
-162.04202188120328 2613.49685891046 2218.291723030395
-130.2574450766112 2172.069005553063 1843.6152622268364
-130.84532277167852 2627.22000461069 2229.939695905117
-120.36768306562823 2519.7220299588885 2138.6972417197944
-114.41728949599728 2618.0712408105364 2222.1743806553022
-91.4476763078475 2432.046376874086 2064.2796372424036
-86.25657847988612 2425.184804023971 2058.4556508050428
-91.95110290182876 2919.2180492322495 2477.7826742950356
-56.12834641883605 2210.1888547203685 1875.9707424343976
-51.34664188062717 2197.990502986831 1865.616988767978
-49.506275383695424 2566.228245943001 2178.170927573019
-29.87012586166723 2265.0814375212885 1922.5626339332857
-17.911229767525857 2528.870793759042 2146.462556969609
-2.4330328544159006 2487.701356658352 2111.518638345443
29.41278878898706 2618.8336377938826 2222.8214902594536
30.261120987946693 2281.0917741715566 1936.1519356204615
55.5407404032469 2369.5298242397052 2011.2166497020035
54.55467049252569 2141.573126219219 1817.7308780607875
83.89317251534133 2353.519487589437 1997.6273480148277
106.66363395588296 2830.779999164101 2402.717960213494
118.04912368623043 2467.116638108007 2094.0466790333603
113.14007798563075 2268.131025454673 1925.1510723498907
145.16985067930025 2417.56083419051 2051.9845547635305
139.29273518079725 2243.7343219875975 1904.4435650170515
167.76456998183673 2322.2612112722463 1971.0958542446276
158.89253131403248 2139.2859352691803 1815.789549248334
201.28118248355685 2384.0153669232814 2023.5117321808766
208.5610422904655 2412.2240553070874 2047.454787534472
237.75826981427082 2461.0174622412383 2088.8698022001504
240.4210460153663 2437.383155757509 2068.8094044714626
274.5624405987919 2477.7901958748525 2103.1062134914773
254.86130946715778 2107.2652619686437 1788.6109458739825
260.162086241388 2115.651628785451 1795.729151519646
305.83678518579313 2297.864507805171 1950.3883469117884
359.2144630042961 2658.4782809278804 2256.4711896753174
367.21601493852864 2638.6559593608818 2239.6463399673853
357.5404059033084 2461.7798592245845 2089.5169118043013
363.9781571762633 2471.691020008084 2097.9293366582674
428.54769051220705 2723.2820245122994 2311.4755060281714
365.0286883228719 2290.2405379717097 1943.9172508702761
408.69127573341916 2411.461658323741 2046.8076779303208
382.9616450394862 2233.060764220752 1895.3840305589345
431.36245008812006 2375.629000106474 2016.3935265352131
505.57516124669377 2753.777903846144 2337.35989019422
459.47852987531775 2372.5794121730896 2013.8050881186084
492.5975266760832 2517.4348390088503 2136.7559129073406
504.57749402518317 2452.631095424431 2081.7515965544867
510.6146328319333 2457.967874307854 2086.281363783545
453.93558733125093 2084.3933524682607 1769.1976577494459
480.2360436066073 2185.029754269947 1854.6161254974072
601.304921046329 2616.5464468438445 2220.880161447
607.2887998773069 2511.3356631420816 2131.579036074131
560.076629015351 2297.102110821825 1949.7412373076372
712.6610480727751 2875.761421181521 2440.897426858416
699.1258149562601 2754.54030082949 2338.0069997983715
566.1567136233227 2213.238442653753 1878.5591808510026
588.225689660503 2213.238442653753 1878.5591808510026
716.0908937486022 2560.1290700762324 2172.9940507398096
824.3259980755225 2846.027938831023 2415.6601522965184
689.2359044531529 2363.4306483729365 2006.0397728687938
689.6707878378576 2287.1909500383254 1941.3288124536714
737.7026809809004 2430.521582907394 2062.9854180341013
829.5971916593203 2647.0423261776887 2246.764545613049
825.4492702568631 2617.3088438271907 2221.5272710511513
861.4394453622111 2648.567120144381 2248.0587648213514
973.5215674916875 2957.337898399555 2510.138154502597
945.2617252701717 2854.41430564783 2422.7783579421816
994.7480300115511 2951.238722532786 2504.961277669387
757.585617367362 2234.585558187444 1896.6782497672368
794.6854897445488 2278.0421862381722 1933.5634972038565
944.3808068025229 2692.023748195109 2284.9440122579713
846.7552053340405 2348.182708706014 1993.0975807857692
946.1576367082092 2609.6848739937295 2215.056175009639
972.4982698965221 2611.9720649437677 2216.9975038220928
853.1829521044226 2279.5669802048646 1934.857716412159
923.4007696188374 2404.600085473626 2040.9836914929597
1065.825242303902 2733.955582279145 2320.5350404862884
976.4703992943355 2467.879035091353 2094.6937886375113
1005.5082025908079 2528.870793759042 2146.462556969609
1104.5220150231917 2711.846069762108 2301.768861965903
1254.427866577417 2994.695350583514 2541.846525106007
1035.9443862300075 2461.7798592245845 2089.5169118043013
1062.5898115676146 2468.6414320746994 2095.3408982416627
1182.9997749708039 2676.775808528187 2272.0018201749467
1124.1689821160935 2532.6827786757726 2149.698104990365
1241.0284437604746 2737.0051702125297 2323.123478902893
1034.4942316894058 2271.9430103714035 1928.3866203706468
1036.2943064941278 2229.2487793040214 1892.1484825381783
1165.9094522295557 2448.0567135243546 2077.8689389295796
1388.5080118885505 2847.552732797715 2416.9543715048208
1457.6567426203212 2955.0507074495167 2508.196825690143
1427.1890963153876 2860.513481514599 2427.9552347753915
1399.734580043671 2794.9473409468337 2372.303808818386
1392.9534588839394 2720.232436578915 2308.887067611566
1252.6214244949485 2402.312894523588 2039.0423626805061
1254.7117957120647 2397.7385126235113 2035.1597050555988
1506.8714086816567 2829.2552051974085 2401.4237410051915
1162.9268291324775 2175.8809904697937 1846.8508102475926
1455.8789664854426 2677.538205511533 2272.6489297790977
1393.312571519641 2502.949296325274 2124.4608304284675
1293.6758742677305 2278.8045832215184 1934.210606808008
1793.4625837348601 2968.7738531497466 2519.8447985648654
1537.114909933587 2435.8583617908166 2067.5151852631598
1734.924761865788 2741.579552112606 2327.0061365278007
1338.9608976632687 2047.0359002843013 1737.4892871460358
-1818.9569684844519 2677.683019827059 2264.743395029521
-1787.4896984308414 2789.921230238972 2359.6727588930335
-1260.8334325541648 1984.4021010922518 1678.3769842263257
-1585.051262828868 2515.815668756818 2127.838462110713
-1290.6418382320994 2146.269452162493 1815.2819171451333
-1546.2192410395728 2586.823516160273 2187.895814759058
-1213.1070775997136 2060.754625181988 1742.9547827729332
-1348.717731142388 2298.210975101069 1943.7917362528822
-1566.1514688138345 2763.197846807564 2337.070529401721
-1664.8508111312392 3056.3915393121524 2585.0492758206933
-1353.0342106284982 2535.6673250201493 2144.628689732831
-1501.7955240258284 2824.2798660793533 2388.732768239007
-1459.1737822932737 2792.9753312025614 2362.255870834898
-1145.207980125086 2215.7502490841534 1874.047713822546
-1109.1930215729508 2177.5739870392854 1841.7588145492425
-1163.985177795084 2327.9884594960663 1968.977077686059
-1352.8170557645624 2715.8592818719276 2297.0322943028245
-1305.038758341055 2680.7371207906485 2267.3265069713852
-1090.2167388783773 2292.8662984147873 1939.2712903546196
-1134.9821272839213 2496.727537734384 2111.6940124740613
-1034.136814988016 2284.467520764916 1932.1677325144929
-1047.1768073225287 2363.110620577345 1998.6828650174984
-1052.426788377992 2385.2528525633684 2017.4104265960145
-1149.8722521022555 2663.9395654909067 2253.1193912911313
-1187.8046534250545 2827.3339670429427 2391.3158801808713
-1062.772386384871 2601.330495737323 2200.1655964829133
-1075.7561008573 2645.61495970937 2237.6207196399455
-1056.5387853390312 2661.6489897682145 2251.182057334733
-1042.6372463366133 2639.506757782191 2232.454495756217
-1002.099837196251 2696.007625608596 2280.2420666807066
-924.1279003026389 2553.228405560789 2159.481583398551
-914.7431302960705 2541.012001706431 2149.1491356310935
-899.5210835998278 2568.498910378736 2172.397143107872
-763.6678045406387 2192.8444918572322 1854.6743742585638
-734.933262800352 2171.4657851121065 1836.5925906655139
-785.3984988749357 2404.3409835858024 2033.5548762326664
-760.5859170527456 2342.495439073116 1981.2468594099144
-764.4310010077182 2428.010266053621 2053.5739937821145
-742.1430528969199 2449.388972798747 2071.6557773751647
-823.9468401026653 2737.237988617054 2315.1140778958747
-791.6550015765534 2738.001513857951 2315.7598558813406
-621.4502740496711 2225.676077215819 1882.442827633605
-672.6706059176194 2516.5791939977153 2128.4842400961793
-648.3109655709632 2579.188263751299 2181.438034904397
-574.4725298001839 2379.9081758770867 2012.889980697752
-655.9901583291761 2740.2920895806433 2317.6971898377387
-536.9105228790628 2320.3532070870924 1962.5192978313983
-603.3490525615266 2750.217917712309 2326.092303648798
-590.7022337491389 2717.386332353722 2298.3238502737568
-440.7625159855574 2125.6542706582645 1797.8459115375495
-539.3501766591472 2626.526828686936 2221.476270003294
-442.29620606066186 2264.615864501585 1915.3775048923749
-431.39938296637257 2231.784279142998 1887.6090515173337
-476.81821699039324 2602.09402097822 2200.8113744683797
-383.2991286242034 2114.964917285701 1788.8050197410244
-502.49787901080583 2935.754551250369 2483.0163541170537
-347.8457967405709 2186.7362899300538 1849.5081503748354
-361.30230924002507 2300.501550823761 1945.7290702092803
-339.43493913253724 2309.6638537145295 1953.4784060348732
-329.4577086366176 2443.280770871568 2066.4895534914363
-322.8634933889408 2631.10798013232 2225.35093791609
-311.73518993526477 2583.005889955786 2184.6669248317276
-331.20489273959845 2839.5503708973006 2401.6483279483286
-265.25030415795106 2398.996306899521 2029.0344303344039
-236.11053706097164 2175.283411316593 1839.8214805928442
-221.7444289650439 2253.1629858881242 1905.6908351103837
-217.7229231999985 2524.2144464066887 2134.94201995084
-229.0679068947753 2719.6769080764143 2300.261184230155
-209.91631379448117 2833.4421689701217 2396.4821040645998
-133.72721117325673 2160.012906498646 1826.9059208835226
-149.00281274295398 2488.328760084513 2104.5904546339343
-152.6093300759624 2637.9797073003965 2231.162939785285
-119.45426159016269 2402.0504078631106 2031.617542276268
-106.2367720128404 2227.203127697614 1883.7343836045372
-96.95173707621952 2582.2423647148885 2184.0211468462617
-55.431340392248224 2185.972764689156 1848.8623723893693
-58.363838169550895 2502.072214420665 2116.214458372324
-29.18646091431167 2216.5137743250507 1874.6934918080121
-25.873288372384078 2323.407308050682 1965.1024097732625
-2.2615349823608417 2315.7720556417084 1958.6446299186018
14.387403454864014 2810.536411743201 2377.108764500618
27.56325097867521 2457.787750448618 2078.7593352152917
28.622651201834607 2160.776431739543 1827.5516988689888
63.296429378475075 2704.406403258467 2287.3456245208336
67.2368349039245 2643.3243839866777 2235.6833856835474
90.60519835627655 2408.1586097902896 2036.7837661599967
128.15407030584905 2682.2641712724435 2268.618062942317
119.87143724729685 2406.6315593084946 2035.4922101890645
150.01014578722865 2893.7606630010137 2447.4985649164196
176.73091171087222 2851.003249510761 2411.3349977303196
159.33778757631438 2208.8785219160773 1868.2357119533515
159.34553924365196 2148.5600278851853 1817.2192511015317
201.28118248355685 2387.5434282860606 2019.3477605524126
210.01121388666976 2432.5914174990053 2057.448661694911
259.26552346537585 2687.608847958725 2273.1385088405796
219.66527225864402 2230.2572286612035 1886.3174955464015
307.6880791483114 2832.6786437292244 2395.836326079134
308.060919242638 2734.1838876534644 2312.5309659540103
299.7591432216335 2613.546899591681 2210.4980442503706
253.57040558418376 2099.694412467754 1775.8894600317028
296.44415016045724 2414.2668117174685 2041.9499900437254
332.10851313381505 2660.8854645273173 2250.5362793492673
347.2373851711294 2612.783374350783 2209.8522662649043
333.56364531342433 2472.2947300256683 2091.029116939147
366.39863831961827 2526.505022129381 2136.879353907238
364.42723571688794 2478.402931952847 2096.1953408228756
340.0067622932796 2163.8305327031326 1830.1348108108532
431.61847567338253 2712.041655667441 2293.803404375494
417.4791849133081 2437.9360941852865 2061.9691075931737
445.34435235349235 2456.2606999668233 2077.4677792443595
435.0297899099458 2373.0364487090105 2007.0779788285574
467.9634405420484 2524.9779716475864 2135.587797936306
541.2751576230446 2799.0835331297403 2367.4220947186263
546.4520715367937 2796.792957407048 2365.4847607622282
546.883476168941 2636.4526568186016 2229.8713838143526
537.4504375242352 2471.5312047847706 2090.383338953681
546.255932364808 2489.09228532541 2105.2362326194007
605.5098505641356 2638.7432325412938 2231.808717770751
515.8824349735402 2228.7301781794085 1885.0259395754695
603.4171955065045 2499.0181134570757 2113.6313464304594
632.9478385612861 2497.4910629752812 2112.339790459527
705.2093270623269 2760.9072710848723 2335.1331954453226
729.6592175223808 2749.4543924714117 2325.4465256633316
603.0688050985846 2159.2493812577486 1826.2601428980568
694.4830602591799 2401.286882622213 2030.971764290802
829.9734294592322 2850.239724269864 2410.6892197448533
824.8462622540776 2739.528564339746 2317.051411852273
731.2234855394119 2412.7397612356735 2040.6584340727932
867.5885377059309 2772.3601496983324 2344.819865227314
762.0044374202864 2346.3130652776026 1984.4757493372447
886.3678077756447 2712.805180908338 2294.44918236096
840.3063957989596 2496.727537734384 2111.6940124740613
886.5638579222285 2618.891576277962 2215.018490148633
1098.956510394238 3209.0965874916255 2714.2048729139083
899.345997360856 2611.2563238689886 2208.5607102939725
757.965224151331 2163.8305327031326 1830.1348108108532
1125.7995343645766 3126.63586147471 2644.4608504835724
1019.4067672158561 2815.881088429482 2381.6292103988803
920.268356977386 2475.3488309892577 2093.612228881011
900.8573773358157 2349.367166241192 1987.0588612791091
926.0185985372199 2402.813933104008 2032.2633202617342
1191.0285583296004 2999.890671485747 2537.261704896204
940.8776231431743 2313.4814799190162 1956.7072959622035
1053.9191305502334 2579.188263751299 2181.438034904397
1098.582449344785 2626.526828686936 2221.476270003294
1311.6432795550809 2959.423833718187 2503.035471666502
1116.5799090101204 2466.1865280984894 2085.862893055418
1338.7443632420966 2815.117563188585 2380.983432413414
1201.6232290139417 2411.9762359947763 2040.012656087327
1360.2385579906545 2670.0477674180856 2258.28561517486
1510.0426539809746 2889.943036796527 2444.2696749890893
1407.0029225628748 2636.4526568186016 2229.8713838143526
1528.426663740762 2854.0573504743506 2413.9181096721836
1414.4245540000938 2605.1481219418097 2203.3944864102436
1287.0290861796532 2285.231046005814 1932.8135104999587
1261.8835621633632 2233.311329624793 1888.900607488266
1268.3601489030225 2202.0067947480006 1862.4237100841567
1543.264404622652 2670.811292658983 2258.931393160326
1574.2902614667448 2682.2641712724435 2268.618062942317
1316.6414104270812 2236.3654305883824 1891.4837194301301
-1410.9897783424517 2008.738630468331 1692.9554378258795
-1682.2722667485978 2545.523753646393 2145.35540636557
-1630.098292007078 2506.5265438428582 2112.4887419844813
-1267.972988049464 1981.9758394266896 1670.399883838858
-1406.4765396271548 2314.5990995156594 1950.7331976775552
-1441.031587115957 2407.121891402476 2028.7109700326869
-1566.300010403723 2624.28282442608 2211.7331795273767
-1469.2509768823554 2507.2911950154767 2113.1331863841106
-1314.3769258788634 2285.5423549561633 1926.2443104916458
-1264.5190914269203 2234.310726390736 1883.0665357164903
-1420.292118415751 2559.2874747535225 2156.9554055588956
-1121.193867987643 2068.38142193256 1743.2221009969562
-1399.7708058081846 2608.9898009737135 2198.844291534793
-1190.7145271037239 2282.48375026569 1923.6665328931292
-1045.1338963286526 2101.2614223551477 1770.9332101810114
-1273.5292001642874 2579.933056414217 2174.3554043488834
-1274.187656961873 2621.2242197356063 2209.1554019288596
-1096.0143788735254 2299.306076063293 1937.8443096849712
-1028.8448821083186 2335.2446811763543 1968.1331964675433
-1137.018993910227 2638.0465455332096 2223.333178720702
-1205.1555829797642 2846.7963156580113 2399.2664998194705
-1152.6426069459885 2735.1572444557364 2305.177617473609
-1180.4269847702406 2813.9163152354236 2371.5553906354153
-1181.404053632886 2829.20933868779 2384.444278627999
-973.8700881401722 2387.2409609144 2011.955415642328
-1010.869224932574 2489.704218045255 2098.3109651926393
-954.4006411453267 2407.8865425750946 2029.3554144323161
-870.121045901397 2206.0186330038578 1859.2220929302102
-1027.629924729457 2670.9265459557973 2251.0442879047573
-852.675428261934 2227.4288658371706 1877.2665361198276
-1150.649888609404 3021.136783014989 2546.1998229349256
-1012.9503907215945 2673.220499473652 2252.9776211036447
-971.1655743091393 2616.6363126998967 2205.2887355310845
-845.8253917125592 2315.363750688278 1951.3776420771842
-849.2359562290698 2349.7730534561024 1980.3776400604977
-844.9279995583295 2350.537704628721 1981.022084460127
-836.6546830776912 2519.5256137773695 2123.444296778178
-710.8243003472744 2179.2558419622164 1836.6665389431887
-792.3183151566411 2443.825147688156 2059.644301214888
-711.3054503087542 2262.6028197776136 1906.9109785027701
-738.3808817576652 2363.536774563232 1991.977639253823
-769.2099909233974 2542.465148955919 2142.7776287670536
-581.2445072858133 1933.8028155517354 1629.799886662219
-661.4050152602772 2290.8949131644918 1930.7554212890502
-693.5086591710395 2487.4102645274 2096.377631993752
-655.5559096347686 2368.124681598942 1995.8443056515982
-564.6207815711391 2214.4297959026594 1866.3109813261312
-538.156817303502 2214.4297959026594 1866.3109813261312
-599.9063472889312 2488.939566872637 2097.66652079301
-586.2636546266915 2676.279104164126 2255.5553987021613
-615.7643403229293 2836.8558504139733 2390.888722624291
-589.2665533398867 2846.031664485393 2398.622055419841
-511.91230430003367 2496.58607859882 2104.110964789302
-432.43249814966526 2240.4279357716823 1888.2220909135237
-465.3454782013052 2543.2298001285376 2143.4220731666824
-390.21788545857527 2156.3163067836667 1817.333206954313
-522.1756842463734 2917.908874711515 2459.1998289849853
-394.54904986570165 2308.481890134713 1945.5776424805215
-448.8959723300105 2826.150733997317 2381.8665010294826
-368.0175197668891 2346.714448765629 1977.799862461981
-331.3558265316967 2258.0149127419036 1903.044312104995
-327.35640806654953 2261.838168604995 1906.266534103141
-325.64835388050676 2418.591658991751 2038.3776360271247
-314.5808029478965 2371.9479374620337 1999.066527649744
-315.55549789145465 2575.3451493785074 2170.4887379511083
-307.58854980901975 2552.4056141999577 2151.1554059622326
-334.77677315891555 2825.3860828246984 2381.2220566298533
-257.74088110200836 2378.06514684298 2004.2220828467778
-225.12582486590023 2290.8949131644918 1930.7554212890502
-230.49961397695003 2394.8874726405834 2018.3998596386198
-216.99849726073657 2519.5256137773695 2123.444296778178
-183.4086666097415 2180.7851443074533 1837.955427742447
-236.5443995657471 2881.9702695984543 2428.9109422024135
-212.09992526656708 2649.5163131224845 2232.9998447151397
-158.8372430975217 2147.140492712247 1809.5998741587628
-199.3815447313168 2771.0958495687973 2335.466504256181
-168.28167966659385 2722.1581745212247 2294.2220626799126
-156.95816389891408 2625.047475598698 2212.377623927006
-111.55645917097839 2246.5451451526287 1893.3776461105572
-107.36578810210953 2254.191656878812 1899.8220901068491
-91.01767156031843 2427.767473063171 2046.110968822675
-78.36576919423793 2209.8418888669494 1862.444314928356
-62.78862622845302 2479.763752801217 2089.9331879974598
-29.21662260316559 2222.0763076288426 1872.7554253224232
-2.248859052687207 2306.1879366168578 1943.644309281634
2.5204194736190257 2391.82886795011 2015.8220820401032
26.843986274665045 2397.181426158438 2020.3331928375073
42.26346399750667 2770.3311983961794 2334.8220598565517
46.76035279955944 2705.335848723622 2280.0442858880706
61.99190104854038 2652.5749178129577 2235.577622313657
54.53524910751589 2147.140492712247 1809.5998741587628
78.52093584259272 2862.853990282996 2412.7998322116837
101.74798765709036 2862.853990282996 2412.7998322116837
89.25502577455651 2375.7711933251253 2002.2887496478902
116.77232537689234 2447.6484035512476 2062.866523213034
110.5920493385594 2223.605609974079 1874.0443141216815
135.92219699364315 2270.249331503797 1913.3554224990621
155.47965853514066 2511.8791020511867 2116.9998527818857
201.25139156718035 2794.035384747347 2354.7998362450567
176.4465885867873 2382.65305387869 2008.088749244553
216.55756559553106 2772.625151914034 2336.755393055439
196.6466301526275 2336.0093323489723 1968.7776408671723
214.55947934749219 2488.939566872637 2097.66652079301
229.80353216249225 2385.7116585691633 2010.6665268430695
241.77468343428296 2458.353519967904 2071.8887448078426
273.10427079121007 2517.996311432133 2122.1554079789194
302.6100499153454 2738.980500318828 2308.399839471755
255.6619852901856 2085.203747730163 1757.3998777887984
309.083891066996 2329.1274717954075 1962.9776412705096
322.85005077587147 2396.4167749858198 2019.6887484378783
386.0294557177092 2823.092129306843 2379.2887234309655
357.76186171371614 2470.5879387297973 2082.1998552019095
411.0191343066934 2799.3879429556755 2359.310947042461
430.3473028743804 2742.8037561819197 2311.622061469901
439.75992777645587 2767.2725937057057 2332.244282258035
384.0121629717742 2272.5432850216516 1915.2887556979497
419.70190528397086 2454.5302641048124 2068.6665228096967
415.16559300843136 2293.1888666823465 1932.6887544879378
444.4078452265373 2427.767473063171 2046.110968822675
512.1886311495749 2652.5749178129577 2235.577622313657
514.5272166886162 2637.281894360591 2222.688734321073
524.2352464868794 2530.9953813666443 2133.1109627726155
553.7464245038535 2622.753522080843 2210.444290728118
594.8492515015548 2714.5116627950415 2287.777618683621
572.3960306114094 2498.1153809440566 2105.3998535885603
578.2690398196038 2501.938636807148 2108.622075586706
716.928077612218 2833.0325945508816 2387.666500626145
621.9337787615488 2438.4725894798275 2055.1331904174835
722.8573145208941 2610.51910331895 2200.1331803340513
746.3722835378522 2676.279104164126 2255.5553987021613
836.4711708304526 2896.4986418782023 2441.1553857953677
694.3495901958698 2388.0056120870186 2012.599860041957
730.3613643202912 2429.296775408408 2047.3998576219333
827.0593435154416 2715.27631396766 2288.42206308325
752.4198031495391 2407.8865425750946 2029.3554144323161
696.3300572863022 2214.4297959026594 1866.3109813261312
867.1427001818228 2673.9851506462705 2253.622065503274
801.0489813587377 2455.294915277431 2069.310967209326
956.7170762627924 2797.8586406104387 2358.0220582432025
820.2175536720845 2358.184216354904 1987.4665284564187
960.5723011159538 2671.6911971284158 2251.688732304386
882.5735354043409 2365.066076908469 1993.2665280530814
885.9260395899182 2313.834448343041 1950.088753277926
1152.6130199817435 2965.317247413851 2499.1553817619947
994.8716023703178 2521.8195672952247 2125.377629977065
1075.6435929267182 2648.751661949866 2232.3554003155105
994.6400793943588 2437.707938307209 2054.4887460178543
1094.7501849866053 2621.2242197356063 2209.1554019288596
1049.4633160572055 2445.3544500333924 2060.9331900141465
1211.0513664671878 2809.3284081997135 2367.68872423764
1177.6087193172768 2672.455848301034 2252.3331767040154
1207.754093068133 2729.04003507479 2300.0220622765755
1384.4899490976882 3062.427946336378 2580.999820514902
1034.1470859740737 2277.89584322998 1919.799866495354
1356.5386742265173 2914.850270021042 2456.6220513864682
1294.4463398313192 2725.9814303843164 2297.444284678059
1247.8328681652513 2617.4009638725147 2205.933179930714
1280.698822210457 2634.223289670118 2220.1109567225562
1170.8123769879433 2353.596309319194 1983.5998620586436
1307.3352978913065 2618.165615045133 2206.577624330343
1329.1207185170338 2612.813056836805 2202.0665135329386
1336.3452045290708 2617.4009638725147 2205.933179930714
1394.540132379651 2682.396313545072 2260.710953899195
1264.685657363194 2423.9442172000795 2042.888746824529
1355.8755529599698 2535.5832884023544 2136.9776291703906
1343.5375086501479 2478.2344504559806 2088.6442991982017
1533.2117819704604 2818.5042222711336 2375.4220570331904
1488.9493687916263 2691.5721276164923 2268.444286694745
1487.105467744387 2679.337708854599 2258.1331763006783
1284.632453171196 2233.5460752181175 1882.422091316861
1565.775739699632 2671.6911971284158 2251.688732304386
1307.6226748340591 2217.4884005931326 1868.888758924648
1779.9217671121548 2920.2028282293704 2461.1331621838726
1361.5536458736774 2128.024213396789 1793.488764168033
1363.845784542081 2125.7302598789342 1791.5554309691454
1831.159931552895 2807.799105854477 2366.399835438382
1812.56810297816 2749.6856167354845 2317.4220610665634
-1621.644457057682 2497.1915415332687 2097.177962142149
-1810.9706796910168 2834.8982173431955 2380.788965302127
-1566.7714607082314 2494.128442432952 2094.6055267393376
-1643.6897877710664 2654.1753704245043 2229.015276536243
-1571.4934684145746 2628.904802846891 2207.7926844630474
-1547.5883844053103 2596.7422622935646 2180.7821127335255
-1546.6103942277193 2635.0310010475246 2212.9375552686706
-1515.851190848737 2590.616064092931 2175.6372419279023
-1285.354216909976 2238.3596675564995 1879.8071706045696
-1414.3197347156442 2560.7508478648424 2150.5559967504896
-1396.5948098372974 2571.471694715951 2159.5595206603302
-1306.794234771122 2508.6781631594567 2106.8245949026923
-1340.6873255194118 2582.958316342139 2169.2061534208738
-1248.2056654499127 2422.145613575507 2034.153294773265
-1108.4151863544564 2182.458108975718 1832.8602245032582
-1053.6566384763632 2113.53837921859 1774.9804279399973
-1366.8890914866001 2752.194541634642 2311.333209426214
-1114.967736938515 2342.5050369672704 1967.2699743001638
-1129.7883754210825 2383.091100046468 2001.3547433874173
-927.1435696721431 2028.5373791847987 1703.5953455119757
-908.6716866990289 2013.2218836832149 1690.7331684979179
-1036.6881220149364 2346.3339108426662 1970.4855185536783
-1175.2491977634404 2730.7528479324246 2293.326161606533
-1339.9832647388318 3127.4241814234497 2626.4565462706337
-1333.9964721232523 3127.4241814234497 2626.4565462706337
-936.7494793994034 2299.621649562835 1931.2558786608015
-1063.6480235316335 2623.5443794213365 2203.290922508127
-996.8319176649666 2518.633235235486 2115.18500996183
-1043.2404498346386 2648.8149469989503 2224.513514581323
-883.1792253185886 2298.855874787756 1930.6127698100986
-1144.7846091936556 3025.576136337916 2540.923069127148
-935.7347698638562 2592.913388418169 2177.566568480011
-875.1628986967213 2438.2268838521704 2047.6585806380258
-988.5640446101556 2831.0693434677996 2377.5734210486125
-858.5944780159201 2472.6867487307345 2076.5984789196564
-750.1797686038756 2223.044172054915 1866.9449935905118
-830.1042625658007 2488.7680190073975 2090.1037647844173
-782.4055544524209 2402.2354694234477 2017.4324646549896
-869.6660355348864 2686.3379109778307 2256.0258482657646
-848.5664885400142 2703.184956029573 2270.1742429812284
-858.7768585955374 2752.960316409721 2311.976318276917
-660.6029323553348 2275.88263153538 1911.3195042890115
-751.283281561249 2698.5903073790982 2266.315589877011
-660.4244230095183 2389.2172982471016 2006.4996141930405
-711.4471274966083 2669.4908659260886 2241.877453550301
-578.128956886996 2185.521208076035 1835.4326599060696
-721.1608837776243 2746.8341182090876 2306.831447471294
-555.6523575544704 2182.458108975718 1832.8602245032582
-614.4662862861127 2553.0931001140502 2144.1249082434606
-604.839553033991 2555.390424439288 2146.0542347955693
-616.4135618048865 2671.788190251326 2243.8067801024094
-536.9982748599255 2347.865460392825 1971.771736255084
-493.80150109699616 2257.5040369334793 1895.8848918721421
-462.90208764438006 2135.745847695887 1793.6305846103814
-581.8033342165294 2709.3111542302067 2275.3191137868516
-549.6981742345844 2684.8063614276725 2254.739630564359
-498.51524506432656 2559.985073089763 2149.9128878997867
-453.53756546550215 2353.2258838183793 1976.2734982100042
-395.06101524263556 2186.286982851114 1836.0757687567725
-517.7989067837848 2930.6200642280955 2461.177571639989
-383.7263158208033 2450.4792802534375 2057.948322249272
-427.21220197944837 2763.68116326083 2320.979842186757
-371.0781301524961 2532.417181186912 2126.7609692744822
-279.85875065373364 2287.369253161568 1920.966137049555
-262.2519510954075 2179.395009875401 1830.2877891004466
-254.8665398640529 2311.8740459641026 1941.5456202720477
-300.25569525163223 2774.4020101119386 2329.983366096598
-257.13637272733996 2620.4812803210198 2200.7184871053155
-262.97424726558637 2795.077929039077 2347.347305065576
-213.77150898584244 2485.7049199070807 2087.5313293816057
-153.4973812914939 2136.511622470966 1794.2736934610843
-135.5234762932934 2195.476280152064 1843.7930749652073
-142.51051467314744 2386.919973921864 2004.5702876409318
-113.30222753923432 2382.325325271389 2000.7116345367144
-94.37170859104513 2520.930559560724 2117.1143365139387
-77.14554095418924 2178.6292351003217 1829.6446802497437
-59.076243884162444 2540.074928937704 2133.1920577815113
-29.930449239375072 2279.711505410776 1914.535048542526
-25.09105290401098 2259.801361258717 1897.8142184242508
-2.2510959814531426 2311.8740459641026 1941.5456202720477
23.81279930776507 2129.619649495253 1788.4857138047582
36.03622128344053 2728.455523607187 2291.396835054424
36.99073815514591 2428.2718117761406 2039.2981655788883
46.91895207417638 2718.500451531157 2283.0364199952865
51.69863641782281 2215.3864243041235 1860.5139050834828
68.88765262975743 2716.20312720592 2281.1070934431777
76.00423918097115 2775.167784887018 2330.6264749473007
83.89317251534133 2363.946730669488 1985.2770221198448
90.54774420386293 2413.7220910496358 2027.0790974155332
108.96981845739722 2756.023415510038 2314.548753679728
117.90320387944894 2474.9840730559717 2078.527805471765
110.5920493385594 2226.8730459303115 1870.160537844026
176.58892115513237 2857.1056858204925 2399.4391219725107
200.79576480383435 2715.4373524308403 2280.463984592475
204.88583429650188 2437.461109077091 2047.015471787323
214.16397800307286 2488.0022442323184 2089.4606559337144
256.2456693568303 2664.130442500534 2237.375691595381
222.59815333296348 2266.6933342344296 1903.602198080577
240.01328869412754 2216.1521990792025 1861.1570139341857
294.49989782381186 2669.4908659260886 2241.877453550301
273.3027935096439 2269.7564333347464 1906.1746334833883
318.2883901944188 2599.8053613938814 2183.354548136337
319.7384572396928 2412.9563162745567 2026.4359885648303
323.98321942888185 2408.3616676240817 2022.5773354606129
420.8734289102981 2831.8351182428787 2378.2165298993154
358.60275670240395 2288.9008027117266 1922.2523547509609
390.66818673702835 2461.9659018796256 2067.5949550098157
462.44264174831085 2740.707920008454 2301.6865766656706
405.4503452603096 2374.6675775205968 1994.2805460296854
498.89510626332253 2854.8083614952548 2397.509795420402
507.6399565061413 2808.0961002154236 2358.2801555275255
493.8175993572358 2701.653406479415 2268.8880252798226
460.22512713377245 2362.4151811193296 1983.990804418439
465.2088427972314 2271.287982884905 1907.4608511847941
450.2721467559511 2177.0976855501635 1828.358462548338
555.7141224570946 2563.0481721900796 2152.4853233025983
578.7992375944995 2507.9123883843777 2106.1814860519894
569.5568507477715 2346.3339108426662 1970.4855185536783
571.2204278303016 2260.567136033796 1898.4573272749537
581.9537145890441 2285.0719288363307 1919.0368104974464
728.3922422089836 2732.284397482583 2294.6123793079387
737.1276096129685 2704.716505579732 2271.460460682634
788.7063551817018 2852.511037170017 2395.5804688682933
720.7823766736973 2588.3187397676934 2173.7079153757936
837.1336347989032 2903.052172325244 2438.025653014685
680.7872062695336 2344.802361292508 1969.1993008522725
859.0655862151674 2919.1334426019075 2451.530938879446
728.7521324820028 2427.5060370010615 2038.6550567281854
734.9258829345482 2432.100685651537 2042.5137098324028
870.6947483889871 2790.483280388602 2343.4886519613588
864.4014350636245 2752.960316409721 2311.976318276917
778.8461288701275 2390.74884779726 2007.7858318944463
897.0977454844549 2673.3197398014845 2245.0929978038153
785.7592210156195 2327.9553162407656 1955.0509061368086
1001.8675501565313 2884.6735777233434 2422.591040597815
1012.3141755161566 2898.457523674769 2434.1669999104674
905.8015119756943 2509.443937934536 2107.467703753395
895.0049751849779 2414.4878658247153 2027.722206266236
915.1029188625027 2455.839703678992 2062.4500842041925
1099.3561454118978 2919.8992173769866 2452.1740477301487
874.8007291125829 2288.1350279366475 1921.609245900258
1141.4128197413015 2970.4403525322136 2494.6192318765397
971.967696363194 2491.8311181077142 2092.676200187229
1053.100842870204 2660.3015686251383 2234.1601473418664
1109.1211763297783 2659.535793850059 2233.5170384911635
1162.5961267092464 2700.8876317043355 2268.2449164291197
1026.6591610185244 2333.31573966632 1959.552668091729
1092.3592637780705 2471.920973955655 2075.9553700689535
1199.1999084693834 2656.472694749742 2230.944603088352
1267.5736509955022 2727.689748832108 2290.7537262037213
1310.6290026325835 2775.167784887018 2330.6264749473007
1307.749497103492 2632.733676722287 2211.008228716562
1348.5693681880468 2654.941145199584 2229.658385386946
1317.215518574667 2583.724091117218 2169.8492622715767
1245.4658593915183 2399.172370323131 2014.860029252178
1255.9086591102002 2410.658991949319 2024.5066620127216
1442.5568077614482 2759.0865146103547 2317.12118908254
1301.4074009228536 2454.3081541288334 2061.1638665027867
1427.9750535823632 2628.904802846891 2207.7926844630474
1280.2586939056362 2265.1617846842714 1902.3159803791712
1552.1894128387544 2644.220298348475 2220.6548614771054
1319.0960314712104 2213.0890999788858 1858.584578531374
1794.3903277610666 2762.915388485751 2320.3367333360543
-1504.576771734872 2117.399979851021 1771.9306773479875
-1477.3200557563982 2089.0248261913002 1748.1851376660334
-1253.8370068970285 1835.1822353435323 1535.7588232139565
-1825.1250277166769 2712.51131066029 2269.94523932627
-1493.5601650851884 2254.6743718804782 1886.8077477012255
-1680.890738838761 2564.5003740028296 2146.083370174455
-1486.8803822761329 2293.0191741233434 1918.8963148390014
-1898.4500217571613 2935.678059713766 2456.700700068126
-1760.5467031080832 2752.3899049928696 2303.3173491495572
-1263.9062143752956 2009.2676375261406 1681.4409180194593
-1433.130565102182 2317.5598475587776 1939.432997807178
-1645.5738817736203 2668.7982361034233 2233.3642727892056
-1408.7997582258122 2325.2288080073504 1945.8507112347331
-1344.11141912149 2231.667490534759 1867.5546074185597
-1281.518190330319 2153.444093959314 1802.093930457497
-1542.4505368741472 2599.7775920662657 2175.604851941209
-1541.3916927341577 2638.1223943091313 2207.693419078985
-1393.091196331278 2421.857709659371 2026.7139004219284
-1260.2891500732094 2197.9240645610375 1839.316668337317
-1575.2018297827583 2764.6602417105864 2313.5856906336453
-1562.256646150302 2768.4947219348733 2316.794547347423
-1682.8882250100323 3051.4793624872186 2553.6081728242093
-1364.9136440973414 2525.388675715107 2113.3530316939236
-1358.7458701162684 2539.959700567396 2125.5466872062784
-1326.1446418535866 2496.24662601053 2088.9657206692136
-1283.8170281249334 2531.523844073966 2118.487202435968
-1295.6922576046293 2602.8451762456953 2178.171937312231
-1260.1206462360467 2661.896171699708 2227.588330704406
-1127.9888077360984 2401.918412493081 2010.027845510285
-969.2098504047908 2089.0248261913002 1748.1851376660334
-1091.4090921237284 2362.039818160501 1976.655735686998
-1125.263625888218 2486.2769774273847 2080.6226932133923
-1285.0670715659908 2851.3194947794623 2386.105852365019
-903.0419705149691 2046.8455437241485 1712.8877138144799
-1077.6188819843255 2661.896171699708 2227.588330704406
-888.0260014467474 2247.0054114319055 1880.3900342736702
-874.6289665796975 2291.485382033629 1917.6127721534904
-1020.7599274140907 2743.954048499439 2296.2578643792463
-976.8415858480589 2639.656186398846 2208.9769617644956
-845.2028622777694 2358.2053379362146 1973.4468789732205
-844.170053782597 2421.0908136145135 2026.072129079173
-839.5914806041997 2491.6452497413857 2085.1150926126807
-921.5588885085705 2750.856112903155 2302.033806464046
-887.7634188285143 2746.2547366340114 2298.183178407513
-885.3215387288269 2772.3292021591596 2320.0034040612004
-745.5473089503956 2393.4825559996507 2002.9683607399743
-809.6831596890812 2615.8824090082694 2189.082050139075
-716.6955043250181 2375.8439469679324 1988.2076198565974
-575.2688816672165 1919.5408002778358 1606.3536709170637
-753.0122095725574 2546.0948689262545 2130.6808579483227
-739.9553034357031 2552.99693332997 2136.4568000331224
-711.7389082774145 2472.4728486199533 2069.070809043793
-756.1866627973185 2720.1802711088626 2276.3629527538255
-635.2351581575526 2301.455030616774 1925.955799609312
-585.8265393543071 2217.8633617273276 1856.0027232489604
-565.5956102686031 2224.7654261310436 1861.77866533376
-713.2275599453084 2827.545717388886 2366.210940739598
-619.9209746286195 2558.3652056439714 2140.9491994324108
-588.479559721523 2448.699071229377 2049.1758974183717
-491.6354068923062 2152.677197914457 1801.4521591147413
-497.989098630044 2279.9819413607693 1907.9862020121575
-600.660686692367 2775.3967863385888 2322.5704894322225
-578.350007473017 2697.173389763144 2257.10981247116
-506.465261723347 2453.3004474985205 2053.0265254749047
-484.31764409886796 2368.941882564217 1982.4316777717977
-571.4952654049082 2822.9443411197417 2362.360312683065
-450.438219915624 2340.5667289044964 1958.6861380898436
-463.1349891209147 2431.827358242516 2035.0569278777502
-394.970019531655 2164.9475346321738 1811.7205005988296
-390.3670129012424 2290.7184859887716 1916.9710008107347
-369.95052265076083 2335.9653526353527 1954.8355100333104
-370.53572371446313 2369.708778609074 1983.0734491145531
-395.6520976467195 2704.0754541668593 2262.8857545559595
-302.3448906459988 2474.773536754525 2070.996123072059
-316.9876007618418 2638.1223943091313 2207.693419078985
-271.5818677517914 2467.104576305952 2064.578409644504
-287.6587132813733 2661.896171699708 2227.588330704406
-256.610377809429 2618.9499931876985 2191.649135510097
-213.57275854441536 2225.532322175901 1862.4204366765157
-213.37636756442686 2484.74318533767 2079.339150527881
-178.13534590076574 2124.3020442547363 1777.7066194327872
-160.76048606950025 2179.5185594844625 1823.9141561111846
-156.46829834874862 2181.052351574177 1825.1976987966955
-150.4608388704405 2441.0301107808036 2042.7581839908164
-140.0873329992056 2349.769481442784 1966.3873942029097
-131.49081623863108 2655.761003340849 2222.4541599623617
-104.30651869892867 2196.390272471323 1838.033125651806
-87.0700639732519 2462.5032000368083 2060.727781587971
-62.130342758897854 2460.9694079470937 2059.44423890246
-58.93376274124014 2537.659012432824 2123.6213731780117
-25.210088736154713 2273.846773001911 1902.8520312701135
7.759778572091744 2524.62177967025 2112.711260351168
26.938175700190186 2412.6549571210835 2019.0126443088623
32.05130093943953 2430.2935661528013 2033.7733851922392
55.46925939886692 2380.4453232370765 1992.0582479131306
85.95856970068826 2425.6921898836576 2029.922757135706
87.93358026904329 2347.4687933082123 1964.4620801746432
112.54543439506955 2711.7444146154326 2269.3034679835146
141.3205142166736 2849.7857026897473 2384.822309679508
136.07780507031453 2636.5886022194163 2206.409876393474
129.6044929905705 2171.082702991032 1816.854671340874
135.08034869384824 2188.72131202275 1831.6154122242508
174.37381108420718 2427.9928780182295 2031.8480711639727
177.80561237564575 2408.0535808519394 2015.162016252329
220.37987232418908 2829.8464055234576 2368.1362547678646
220.6561859781365 2628.9196417708436 2199.9921629659184
237.56336701987553 2422.624605704228 2027.355671764684
240.3450278630206 2222.4647379964713 1859.8533513054936
275.1538058554662 2497.7804181002443 2090.249263354725
297.0001005042385 2470.172160485381 2067.145495015526
335.0700166582777 2740.88646432001 2293.690779008224
335.63448587009947 2701.0078699874302 2260.3186691849373
