# .PCD v.7 - Point Cloud Data file format
VERSION .7
FIELDS x y z
SIZE 4 4 4
TYPE F F F
WIDTH 863
HEIGHT 1
VIEWPOINT 0 0 0 1 0 0 0
POINTS 863
DATA ascii
85.51034731281268 961.7977412141933 250.96036538719773
226.92827590875123 2421.911213540368 631.945467368366
95.67774668187957 971.4737748280181 253.48511755407094
250.02121021994427 2420.943610178985 631.6929921516787
100.89881494246733 933.7372437341011 243.6385841032654
273.18314368192364 2420.943610178985 631.6929921516787
109.3724621911294 929.8668302885711 242.6286832365161
287.4388707102796 2348.3733580752987 612.7573509001296
121.2081614765439 953.0893109617508 248.68808843701183
302.4536907072196 2292.2523631151143 598.113788332265
130.43417845425628 954.0569143231334 248.94056365369914
319.9307281809022 2261.2890555508748 590.0345813982707
142.07296471249367 971.4737748280181 253.48511755407094
337.95882529062 2238.066574877695 583.975176197775
158.5526301078463 1017.9187361743775 265.6039279550624
357.84535919874963 2229.358144625253 581.7028992475891
163.42889876526513 988.8906353329029 258.02967145444273
378.35788836506333 2225.4877311797227 580.6929983808398
181.26709158982325 1037.2708034020272 270.6534322888088
380.18066003685163 2118.0837580662665 552.6682493285471
201.2548189293105 1092.424195000829 285.04451963998616
333.12916235175265 1762.9733244388933 460.00984480430003
602.6037605362624 2455.777331188755 640.7820999524223
-474.0833939203293 1970.934611024729 510.60039078010885
-414.6789320658928 1793.7828262420546 464.7065442610716
-320.022733812007 1938.0211646716639 502.0736651973369
-293.78629935945315 2010.6243551563666 520.8826186887457
-243.52873363943777 1916.7242287961512 496.55637217319037
-122.33169786906241 2037.7295462706556 527.9046279922048
-83.2695726438924 2039.6656313502476 528.4062000853091
-60.495863884045804 1938.0211646716639 502.0736651973369
-41.322838313603135 1912.852058636967 495.5532279869819
-25.554670068683926 2131.629672630871 552.2308745077602
-4.793932394486308 2020.304780554327 523.3904791542668
135.18975707151034 2083.2275456410694 539.6915721801544
66.18300847832549 949.6497315399113 246.02111166762612
177.96180460940542 2389.1289882166166 618.9399628906231
78.66772335983013 992.2436032909368 257.0556977159192
202.65769836414867 2410.4259240921297 624.4572559147697
83.96187019849614 944.8095188409311 244.76718143486553
224.29906296374372 2394.937243455393 620.4446791699359
104.06384400061005 1057.1024534572712 273.858362834911
246.8234968997851 2391.065073296209 619.4415349837274
98.3894143635873 910.9280299480698 235.98966980554147
270.4534959632793 2397.841371074781 621.1970373095921
109.82770657069705 934.1610509031747 242.00853492279228
286.72826781606386 2343.630988846203 607.1530187026736
127.23780605761056 1000.9559861491011 259.3127721348883
303.0920480113716 2298.132989475789 595.3660745147242
138.63592192703913 1014.5085817062456 262.82377678661794
318.8355438311173 2254.571075184968 584.080702419879
144.47858264089245 988.3714331317527 256.0525535297108
340.58885505941856 2256.50716026456 584.5822745129832
150.7154278591695 968.042539796036 250.78604655211635
355.5156368081328 2215.849373593126 574.0492605577942
168.3861354205716 1019.3487944052258 264.0777070193785
371.6132477463818 2186.808097399245 566.5256791612308
177.3779655575789 1015.4766242460418 263.07456283317003
371.1494154859534 2068.7069075441286 535.9297814818726
204.64174679437417 1111.3128356858492 287.90238144182956
339.34562312011684 1796.6869538614428 465.45890240072794
504.3066932147444 2056.1223545267803 532.6695628766951
-387.94184862343434 2108.3782809492423 542.2822368670384
-311.87030652708575 1889.5020790684296 485.9865154467579
-78.88280351077799 1933.0836236907153 497.19584050831816
-23.697836639533413 1977.633647082385 508.65426168235757
-5.129300928072796 2162.613092034753 556.231619165869
119.8615504147034 1847.8574919849123 475.2753826101558
67.39737560636816 967.5102906147417 248.8470163666382
177.74548150817841 2387.30016653187 614.0219172610242
79.89570733422748 1008.1863989288751 259.3090530907611
202.1693665608616 2405.701263150169 618.7547433981274
90.49988468116594 1018.8396653921004 262.0491103280314
225.93098823995527 2413.4490933052416 620.7475122979604
95.67774668187957 972.3526844616624 250.09249692903379
247.92271085358982 2402.7958268420166 618.0074550606901
101.94439851700066 944.2668001495227 242.86870966713937
267.28710460965186 2370.83602745234 609.7872833488792
109.71389547580515 933.6135336862974 240.12865242986908
283.41212097639027 2317.5696951362133 596.0869971625277
121.45426941862826 955.8885453821323 245.85786301688879
302.9643765505412 2298.2001197485306 591.1050749129454
139.8264975924431 1023.6820592390211 263.294590890427
320.88901448696396 2270.114235436391 583.881287651051
146.88420056929127 1005.2809626207227 258.56176475332376
334.5982316971551 2217.8163818896483 570.4300975771787
169.25342548584734 1087.6016580183734 279.73493431404876
357.69004437270854 2230.406605891642 573.6683470394072
157.99192953041288 956.8570241515164 246.1069591293679
378.6868952245112 2229.438127122258 573.419250926928
180.0834445365315 1031.429889394094 265.2873597902599
376.01239332105246 2096.7565357166327 539.293083517289
175.22895217671586 952.0146303045958 244.86147856697232
344.6478984813687 1825.5824802890772 469.54617202313614
-352.4341881522267 2020.1816217853745 515.8402998997014
-230.33872909946112 1687.844789040826 430.98024097135726
-238.8778717705858 2034.7153025176435 519.5513811939438
-104.52307781539375 2074.4406965191783 529.6950033982066
-26.900874304818046 2245.938129159951 573.4857626702676
-4.015234224035489 1693.6582613337337 432.46467348905423
76.30273454534773 1095.8395272130738 279.8155295858812
181.4950819294463 2438.7516268747186 622.7194411738842
77.05599439343361 972.7876970131972 248.3950412946284
201.1113143204062 2394.181672629094 611.3387918715406
82.15531356512687 925.3110066211188 236.27217573343637
229.55748885375874 2453.2853076069873 626.4305224681266
90.91291865987361 924.3420945723009 236.02477031382023
249.02192480739456 2414.5288256542703 616.53430568348
106.44040788749403 986.3524656966481 251.8587171692547
269.14326505833003 2388.3682003361864 609.8543593538436
112.10392846853533 954.3783680856566 243.6943383219213
284.4780253177139 2327.326741260657 594.2678179180253
130.31415533366496 1026.0778596981831 262.00233937351743
301.55999048140677 2288.57025930794 584.3716011333788
131.75704030470513 965.0364006226538 246.4157979376991
322.25799492419503 2280.8189629173967 582.3923577764494
142.92200633428146 978.6011693061047 249.8794738123254
338.9816146451528 2247.8759532575873 573.9805735094999
153.27759013277537 985.3835536478302 251.61131174963853
348.99241411440556 2177.1453736938784 555.91997787752
172.06408519708933 1042.5493645280878 266.2082315069922
372.6002683247254 2194.585790572601 560.3732754306109
192.0890075056336 1100.6840874571633 281.052556683962
369.75999324735363 2062.813751933363 526.7261383628127
158.82909093535488 863.3006354967716 220.4382288780019
386.3347530456934 2047.3111591522766 522.767651648954
552.881032983058 1897.129791585498 484.41981160844864
644.965491863077 1649.088307088109 421.0840241867107
-800.9538213029308 2227.548781834906 564.6507102145757
-445.30018048785087 2010.4160894367258 509.6107802371758
-259.7639825487336 2047.2510997542743 518.9479112154847
-44.877940800097335 2080.208740564712 527.30218630134
-28.711286898239795 2398.1530401477626 607.8963694825328
-5.175241823084645 2183.928374879915 553.5935814244731
57.749903422473615 829.7570745216187 210.3311609850639
170.75103456850567 2295.402748209338 581.8506883325132
84.96114122861654 1073.0620110927944 272.0053682365254
199.4021530089013 2374.8888231051 601.9992341278113
89.63961961765675 1010.0547566022508 256.0339599841549
225.84032572461018 2414.6318605529814 612.0735070254605
95.58245012143945 972.2504039079247 246.45111503273256
247.62292522982492 2402.030409654873 608.8792253749863
98.3894143635873 912.151176547714 231.21684869970224
267.3962905183977 2373.9194807283225 601.753520154698
112.78679503788682 960.6182953865936 243.50254735537186
290.04441465573746 2373.9194807283225 601.753520154698
122.56175515800784 965.4650072704816 244.7311172209388
301.304647559746 2287.648009195117 579.884976547606
132.2861850448847 969.342376777592 245.71397311339237
314.591704475701 2227.548781834906 564.6507102145757
146.1766658844681 1001.3306752112525 253.82253422613434
335.76713381662114 2227.548781834906 564.6507102145757
156.7440449735363 1008.1160718486956 255.54253203792808
356.9134702425029 2227.548781834906 564.6507102145757
174.94248067436405 1060.4605601946855 268.81108658605126
350.88581560116523 2067.6072896666037 524.107904650866
176.19431850428717 1010.0547566022508 256.0339599841549
370.4547043666535 2067.6072896666037 524.107904650866
180.9332517389284 983.8825124292558 249.39968271009326
374.99885399749985 1988.121214770841 503.95935885556776
485.3120908337748 1981.3358181333979 502.239361043774
546.3865162524093 1875.6774990646404 475.45653797441423
646.8602201000425 1654.6674371593494 419.43375210456077
-268.68444175092134 1970.5721359670129 495.852253146443
-235.16512056495205 1854.1997657327404 466.5696397716531
-106.28058869879132 2111.188750000092 531.2354109743142
-75.44452500103968 1851.2904564768837 465.8375744372833
-59.498679314528566 1909.4766415940198 480.4788811246783
-39.56619943792365 1834.804370693695 461.68920420918806
-25.32256589004011 2116.037598759853 532.4555198649305
-4.499910666410483 1899.778944074497 478.0386633434458
170.8231422689147 2297.384542374928 578.087592373978
83.34941226222003 1053.1699506201653 265.007651041849
199.23937574113896 2373.9963527791574 597.3653128457148
87.66100997158563 988.1953772393632 248.65819190759126
221.6698500187362 2371.0870435233005 596.6332475113451
93.00944298955623 946.4952779054156 238.16525544829153
245.42449732221547 2381.7545107947753 599.3174870707008
105.81305774277402 981.4069889756973 246.9500394607285
266.19524552219417 2364.2986552596344 594.9250950644823
109.82770657069705 935.8278106339407 235.4810158889358
278.91163597969035 2283.8077658475963 574.6712874802527
137.57433962515339 1084.202582682638 272.81634794179297
300.666290255594 2283.8077658475963 574.6712874802527
136.51934296632098 1000.8023840147428 251.83047502319351
329.23979515407353 2332.2962534452095 586.8723763864151
148.44077687590223 1017.2884697979314 255.97884525128873
335.76713381662114 2228.5308899863167 560.7620461272273
172.11701861517156 1107.4770567294925 278.67287061675097
341.22667281234936 2130.5841450391376 536.1158465367791
167.74649198117723 1017.2884697979314 255.97884525128873
348.2537607255822 2053.002564882956 516.5941042869192
167.2324193865067 959.1022846807952 241.33753856389376
382.78582673422613 2137.3725333028033 537.8239989836419
192.16359150203428 1045.4117926045471 263.055476816863
379.0212697887943 2010.332695797056 505.85714604949624
503.46623177159984 1729.0994677308977 435.0908303937539
778.059990502937 1600.1200907212458 402.6359339033617
-358.717014827273 1953.000870329727 487.8079545183012
-244.75142799259615 1795.8294142972302 448.55068247062866
-24.057598116431326 2011.212520712133 502.347684906328
-4.2265623410899895 1785.157278393789 445.8850652328237
151.71460166053038 2041.2885400763762 509.8598789401419
87.18686218221174 1102.1405805735567 275.28556201330855
195.49549858260448 2330.406403642327 582.0738732006753
85.85445333821635 968.2537846940226 241.84418212084677
225.56833817857495 2413.843102523776 602.9141534235138
99.48960909948434 1012.8827166538673 252.99130875166736
242.3267125433113 2352.720869622249 587.6474365160856
108.74069175146738 1009.001939961707 252.0219933924656
270.56268187202505 2404.1411607933746 600.4908650255094
113.92490598680595 971.1643672131429 242.57116864024812
280.6881432152298 2299.360190105044 574.319350327061
124.28451075259832 979.8961147705038 244.75212819845214
299.6449185689508 2277.045724125121 568.7457870116507
139.69421140739823 1024.5250467303485 255.89925482927273
317.74035948133246 2251.820675626079 562.4452371768391
149.5728323716193 1025.4952409033888 256.1415836690732
329.3381721595579 2186.8176660323916 546.209204910209
157.04547582925463 1010.9423283077871 252.50665107206646
332.52904255404644 2077.1857244788603 518.8260460127584
162.94916618571935 988.6278623278647 246.93308775665616
360.92052481432563 2128.6060156499857 531.6694745221822
179.0688899194243 1027.4356292494688 256.62624134867406
387.99616012897513 2167.4137825715898 541.3626281142001
180.9332517389284 984.7470856357044 245.9637723974544
392.91688797690256 2084.9472778631807 520.764676731162
530.5737798647426 1822.9948511423531 455.33588998504115
-693.5184379265562 2033.4397631775375 504.1306671176427
-103.69314212045602 2061.587616701236 511.1090868534001
-76.43253606705643 1877.170645339073 465.3884058260243
-5.705859160471485 2411.0092466505985 597.7377456421119
137.07673847750394 1845.1403292603813 457.4474454370591
75.82801041903626 958.9682510832492 237.7475413423537
204.44824830953473 2438.1864845355485 604.4755302145672
90.75796420021868 1023.9994988793806 253.87009728358618
221.57918750339113 2372.184621100669 588.1123391100328
94.53418795659815 962.8507136382422 238.7100819955616
242.82635524958616 2358.596002158194 584.7434468238051
103.82644895116067 963.8213292769904 238.9507171588636
264.01152734727873 2346.9486144932152 581.8558248641814
116.31493897953615 991.969182800689 245.92913689462094
280.6881432152298 2300.3590638333003 570.3053370256865
126.25337428927314 995.8516453556819 246.89167754782883
299.26190418645956 2275.1230572258464 564.0488227798351
140.7525008877573 1032.7350396281145 256.03581375330396
316.78207317527074 2246.0045880633998 556.8297678807758
146.1766658844681 1002.6459548269195 248.5761236909427
334.5982316971551 2222.709812733442 551.0545239615283
152.6747284213387 983.2336420519549 243.76342042490313
348.52646963628223 2178.0614933510237 539.9853064496374
159.59103812889882 968.6744074707316 240.15389297537348
357.46595279012286 2109.1477829998994 522.900209855197
186.00167980299028 1067.6772026230508 264.6986796321752
393.901204643024 2201.356268680981 545.7605503688848
184.8549576879495 1006.5284173819124 249.5386643441506
392.7340508954801 2084.882392031194 516.8843307726476
175.9787796746169 911.4080847845861 225.9564183405568
310.2405540922203 1568.5148722171364 388.8664238959955
506.57230499060574 1741.284455914321 431.6994829637475
-264.0687833958954 2084.8103153111197 513.0057983808271
-88.75429961157676 1765.3400806872917 434.3942903848829
-5.731126652728001 2422.7301987430105 596.1571806987254
74.29303045103958 939.9610550634204 231.2946496658782
194.2746690743867 2317.858510781389 570.3515792897224
89.63961961765675 1011.8175820000869 248.97626544612098
221.48852498804604 2372.2364230577855 583.732261501798
101.10965062696636 1030.2672308081499 253.5161397680752
244.6250689921757 2377.0915937967493 584.9269652707334
110.51818382817406 1026.3830942169789 252.56037675292694
265.321758252228 2359.612979136479 580.6260317025663
111.8763062787515 954.5265672803123 234.87876097268418
287.08356926317174 2353.7867742497224 579.1923871798438
127.11475208656837 1003.0782746699518 246.8257986620374
300.666290255594 2286.78541805202 562.7054751685364
142.6045074783857 1046.7748113206274 257.5781325824553
320.4783203557946 2273.1909399829206 559.3603046155175
143.91255489303393 987.5417283052672 243.0027466014444
339.41995293995257 2255.7123253226505 555.0593710473503
162.16980037646638 1044.8327430250417 257.10025107488116
348.99241411440556 2181.9137300903985 536.8998737595334
162.14961188647635 984.6286258618888 242.28592434008317
376.5483506381 2222.6971642976955 546.9353854185902
174.33430170625726 1001.1362063743662 246.34791715446326
402.41141585444734 2249.8861204358936 553.6257265246279
188.95492299828976 1029.296196660357 253.27719901428813
393.8310733840149 2091.607554345669 514.6783836573364
201.46665404708537 1043.861708877249 256.8613103210941
341.53338225870044 1727.469748923373 425.07560098718733
-321.1416944197413 1951.642445087961 476.6264433821154
-290.9167292485417 1875.869368573844 458.1212853015753
-107.40344287429531 2137.1893375776576 521.9403561177968
-40.69546728657475 1890.4411140573282 461.67996954783297
80.20270332782682 1015.1649353493874 247.92166915595348
190.6121805497334 2275.1351948213064 555.6292336490365
92.65054733993888 1046.2513257141534 255.51352888130324
219.49394965045414 2351.8797210343223 574.3716373459937
101.7767265500472 1037.5082784240628 253.37831833354863
245.52442586347047 2386.851910194684 582.9124795370121
110.20450875581405 1023.9079826394778 250.05687970370812
263.02885416856674 2340.222324647535 571.5246899489875
113.58347270213022 969.5067995011374 236.771125184346
285.5439296590376 2342.165224045333 571.9991811818219
125.63810443406226 991.8501425758129 242.22777436194116
302.3260192463892 2300.3928869926785 561.7976196758831
137.04848770650054 1006.421888059297 245.78645860819887
326.36493623588825 2315.9360821750615 565.593549538558
141.78995083856438 973.3925982967331 237.72010765001474
345.1183507723495 2294.564188799285 560.3741459773801
160.6626460978747 1035.565379026265 252.90382710071427
363.9026374143535 2276.1066445202055 555.8664792654536
166.94693768193423 1014.1934856504885 247.6844235395363
377.6998746461676 2230.4485086719556 544.7159352938461
189.383528526681 1088.0236627668075 265.715090387242
400.5009602763727 2240.1630056609447 547.0883914580179
191.98533214071514 1046.2513257141534 255.51352888130324
412.48045568910754 2191.590520715998 535.2261106371589
196.5939721817605 1019.0507341449832 248.87065162162222
373.40215204787654 1889.469664358429 461.4427239314158
-653.5543659605631 1735.7460513702747 420.691864851818
-400.83375882511405 1982.5990732336843 480.52150296624234
-367.0190793368472 2231.3958196786957 540.8222405933786
-307.0369208744319 1980.6553486520827 480.05040345353035
-103.15612490608454 2053.5450204621447 497.7166351802304
-67.89612045667164 1669.6594155958185 404.67448141960995
-57.05104446207716 1834.8760050319588 444.71794000013017
-24.057598116431326 2014.6705288301116 488.2946449259904
-5.035122093298509 2130.32214143541 516.3250659323545
73.14179547504206 926.1847631331868 224.47891780726908
183.61275803595157 2192.521328046663 531.4002503391386
91.36014974467511 1032.1177528304768 250.1538412500732
222.5764751721871 2385.921923916027 578.2746518539828
93.58122235219695 954.3687695664108 231.30986074159313
243.1261408733511 2364.540953518409 573.0925572141508
101.83984015954734 946.5938712400042 229.42546269074512
256.69607146131193 2284.848245672741 553.7774771929587
115.85969459996849 989.3558120352405 239.78965197040915
281.5171799251482 2310.1166652335623 559.9017708582147
129.6988854784541 1024.3428545040701 248.2694431992252
300.027932951442 2283.8763833819403 553.5419274366027
131.49246793461538 966.0311170560207 234.13645781786514
329.92428537268904 2342.1881208299897 567.6749128179628
154.52557516538155 1061.2736215545017 257.2203339407532
347.01781671648183 2308.1729406519607 559.4306713455027
154.6340289835079 997.1307103616471 241.6740500212572
357.84535919874963 2239.170718005102 542.7066386442266
184.5371322652798 1121.5290835841529 271.82441883482534
371.11973745720996 2192.521328046663 531.4002503391386
170.61426811019746 980.6090514180331 237.66970416320515
408.3164603684962 2284.848245672741 553.7774771929587
187.3505887464175 1021.4272676316677 247.5627939301572
416.868545643247 2215.8460230258825 537.0534444916826
200.34218900124117 1038.9207888660826 251.80268954456523
389.52851748336326 1971.9085880348753 477.9304556463263
-367.82391986304583 1820.0930384363376 437.7731506563429
-375.07827963227965 1946.4883883277498 468.1740638963667
-323.69931866599114 1968.8506425393075 473.55268700806323
-268.1555353695219 1971.7674583060323 474.2542465443715
-99.00644643139586 1971.7674583060323 474.2542465443715
-74.02178906597554 1821.0653103585792 438.0070038351123
-23.721047057397794 1987.3238090618984 477.9958974046821
-5.182132957336421 2193.445456577125 527.5727713037978
186.6241374895554 2229.419517700065 536.2253389182662
84.04789670484706 949.9096680300757 228.47455565771742
208.70511032438887 2238.1699650002397 538.3300175271909
97.20249164892148 991.7173606864659 238.53024234480222
242.82635524958616 2362.620771047169 568.2632244096759
111.77288411761405 1039.358684876306 249.9890481045035
259.4257191799562 2310.1180872461205 555.6351527561276
116.20112788464424 992.6896326087076 238.76409552357163
282.10934900366135 2315.9517187795705 557.038271828744
125.3919964919779 990.7450887642243 238.2963891660328
296.96381789151235 2261.504491134039 543.9424938176568
137.57763244668007 1011.1627991312986 243.2073059201905
331.70395994108947 2355.8148675914777 566.62625215829
138.81830516230704 953.7987557190422 229.40996837279508
349.35562095541394 2324.702166079745 559.1429504376688
153.27759013277537 988.800544919741 237.828682808494
358.4666185029142 2244.0035965336897 539.7331365998074
175.26230239406124 1065.6100267768302 256.3030839312777
379.6739158028549 2244.0035965336897 539.7331365998074
190.7362680161573 1096.7227282885624 263.7863856518989
404.14819365269705 2262.4767630562806 544.1763469964262
187.17232938509835 1020.8855183537149 245.54583770788463
418.6969164574718 2226.50270193334 535.523779381958
214.39800207429366 1112.2790790444285 267.52803651220955
391.2563423514511 1981.4901775284486 476.5927783320656
-271.46120025326843 1996.909149321696 476.6160397587346
-74.45651393502291 1832.5264672781664 437.38169454722646
-42.91217824874172 1995.9364707297225 476.3838838699091
-25.682327366938022 2152.537724037464 513.7609819708133
-5.476154685412247 2318.8657632649406 553.4596389599724
156.7545088551608 1873.3789681410553 447.1322418778971
85.16624128740901 962.9518060538135 229.83432993723684
213.1475735762981 2286.7673697298137 545.7984946287312
99.39431253904422 1014.5037714284116 242.13859204498792
233.43307237161864 2272.1771908502105 542.3161562963487
106.85864131730736 994.0775209969671 237.2633183796526
256.91444327880345 2288.712726913761 546.2628064063821
116.54256116931998 996.0228781809142 237.72763015730357
284.7148929491192 2338.319335104412 558.1027567364822
127.36086002865274 1006.7223426926232 240.28134493438398
297.8575181173252 2269.25915507429 541.6196886298723
128.97903041876256 948.3616271742103 226.35199160485448
319.7938301371791 2272.1771908502105 542.3161562963487
141.78995083856438 974.6239491574961 232.62020060314273
344.53389971261646 2293.5761198736286 547.4235858505095
154.48331355564875 996.9955567728878 237.95978604612907
356.9134702425029 2235.2154043552155 533.4942325209801
173.34337207587808 1054.383593699327 251.65698348683307
385.9250461323646 2281.903976769946 544.6377151846036
172.30519247204282 991.1594852210465 236.5668507131761
423.9474605527432 2374.308443007433 566.6925246230254
181.46802982288582 990.1868066290729 236.3346948243506
420.1596131088516 2235.2154043552155 533.4942325209801
205.40228170754006 1066.0557368030097 254.44285415273896
416.98173483187037 2112.6579017665485 504.2425905289681
-440.1472372228034 1994.8187124534657 472.4386779736578
-331.5527615303602 2280.9049082882552 540.1932981318312
-62.248491309257915 2004.5495354410434 474.7432568906024
-25.264539845379158 2118.4001643957045 501.7068302188551
-4.7411003652226835 2008.4418646360746 475.6650884573803
86.28458586997094 976.0015456540614 231.14926536955062
210.5183606312906 2259.497097715584 535.1232245145528
100.44257470388553 1025.6287428907085 242.90261784596842
242.12685546080135 2357.7784098901207 558.3994715756941
113.4458178368674 1055.7942941522 250.04681248849693
258.0063023662612 2299.393471964653 544.571998074026
116.88399445399573 999.3555208242483 236.68025477021783
281.9909151879587 2316.9089533422934 548.7202401245264
130.06804739158062 1028.547989786982 243.59399152105183
292.75065968410917 2231.277711051608 528.4399456554133
141.41393181298173 1040.2249773720755 246.35948622138545
325.9542421047189 2316.9089533422934 548.7202401245264
149.14831156072543 1025.6287428907085 242.90261784596842
347.89449330608136 2316.9089533422934 548.7202401245264
160.51193067001552 1036.3326481770443 245.43765465460757
356.4475257643795 2233.223875649124 528.9008614388023
160.23068156829322 975.0284633553036 230.91880747785615
383.7865015459534 2270.2010030019196 537.6582613231919
162.32873873715516 934.1590068074765 221.23957602668852
413.35311598342025 2315.9358710435354 548.489782232832
176.655027067269 964.3245580689679 228.383770669217
414.67450066617727 2206.950653582663 522.6784983630516
198.6554914324749 1031.4672366832554 244.28536519613525
422.3571899770326 2140.7810572671337 507.00736172782786
715.4493822781958 1837.1793800547039 435.1044995191541
-81.45163228242157 2006.3485482524159 471.47269584295515
-69.1381301531952 2227.3291986421773 523.4010325515194
-42.703054573065586 1987.8523704664885 467.12627118452906
-5.551957162181796 2352.908510978209 552.910968390307
79.40246536189748 898.5248471795147 211.14473472248793
200.90813400471143 2157.238419663927 506.93037068801
96.24952604452028 983.2178717782339 231.0467844742284
240.32814171821184 2341.2267144818343 550.165858079722
109.78627532600072 1022.1571934328174 240.197152176178
257.2420010050408 2293.5260454549693 538.9566576448337
118.93259416205018 1017.2897782259944 239.0533562134343
283.53055479209286 2330.5184010268235 547.6495069616859
124.65367266572484 986.1383209023276 231.7330620518746
298.3682039606468 2275.0298676690422 534.6102329864076
130.69875082434606 961.801244868213 226.01408223815608
326.2280381921651 2319.8100875718133 545.1331558436498
145.18611732571563 998.7936004400673 234.70693155500823
346.28725289181557 2307.1548080340735 542.1592863405161
148.90684272485947 961.801244868213 226.01408223815608
363.9026374143535 2280.8707659172296 535.9827881417001
165.82756166299407 1009.5019138950777 237.2232826730444
378.35788836506333 2239.0109951385525 526.1461428621043
162.4978311733397 935.517202751369 219.83758403934007
408.3164603684962 2288.6586302481464 537.81286168209
175.94198962199243 960.8277618268484 225.78532304560733
418.5140793760493 2228.302681683542 523.629791744068
191.15905779351357 992.9527021918798 233.33437639971578
427.73264512219487 2168.920216160302 509.6754809985949
-482.39991938440136 1807.522799271894 421.4229824206279
-323.1571125003221 2088.9743558395544 487.0432636272881
-87.69586221964748 2161.041536413972 503.8456885729382
-63.66872387796429 2051.966884733772 478.41499135790025
-44.940677902800175 2092.869879113847 487.9515028135395
-21.53926777814594 1807.522799271894 421.4229824206279
82.15531356512687 930.0561817374239 216.84210571751055
204.5346346185149 2197.0751267011815 512.2469010457631
95.2965604401191 973.8808185732187 227.05979656283827
230.9348588402443 2250.6385717227085 524.7351898567193
104.24468238097401 970.959176117499 226.37861717314976
273.0739577731778 2435.67592725162 567.8765512036586
122.11930481902377 1044.9741183290637 243.6351617119255
286.372966368956 2354.843819310043 549.030588088943
123.79229486842961 979.724103484658 228.42215534221532
307.4328776796052 2345.1050111243107 546.7599901233145
133.47676071028863 982.6457459403777 229.10333473190383
322.1210968804719 2291.5415661027837 534.2717013123585
143.91255489303393 990.4367924889634 230.91981310440653
351.25508689954626 2341.209487850018 545.8517509370632
147.39968844626776 952.4554405646079 222.06448103845585
360.48571124144877 2260.3773799084406 527.0057878223477
162.14961188647635 987.5151500332438 230.23863371471802
380.98994324064637 2255.507975815575 525.8704888395334
166.7251420779531 960.2464871131937 223.88095941095855
405.8849714509467 2275.9594730056124 530.6387445673531
174.69417409275846 954.4032022017543 222.5186006315815
419.4282647831617 2234.082597806964 520.8751733151511
196.03173965883843 1018.6793362275868 237.50454720472885
428.6925478266881 2174.6758678739975 507.02452572481786
-457.3181658445613 1913.4773356937692 442.6064683059588
-363.75941146455244 2096.6411539781016 484.9740935816819
-286.40280552780297 2110.281012786509 488.12912950646984
-67.02289015724955 2160.9433455034523 499.8478343699677
-42.53575563252468 1981.6766297358079 458.38164792989824
-24.684279398769622 2072.2842632488023 479.3401008588464
208.88643535507904 2244.7310496122427 519.228769336522
92.53296018735564 946.0216359259929 218.82427735493175
229.7357163451846 2239.8596714663827 518.1019707919548
104.55835745333401 974.2756291719803 225.35970891342097
262.919668259821 2346.0557150461286 542.6661790635177
113.58347270213022 972.3270779136363 224.90898949559414
281.5171799251482 2315.853170541797 535.6800280872017
124.65367266572484 986.941212351216 228.28938512929545
302.58136216805 2309.0332411375934 534.1025101248077
146.57309302973223 1079.4973971225543 249.69855747607045
322.1210968804719 2292.4705554416696 530.2713950732796
146.60118669536197 1009.3495518221716 233.47265843430412
344.0955614178167 2294.419106700014 530.7221144911064
151.31828957060617 978.1727316886683 226.26114774907467
367.31956358725824 2304.1618629917334 532.9757115802406
178.46051959103315 1087.29160215593 251.5014351473778
392.8341901807701 2326.570202462689 538.1589848852493
169.0924361845366 974.2756291719803 225.35970891342097
406.92703812989646 2282.72779914995 528.0177979841453
176.29850834463073 963.5585972510885 222.88075211537333
424.913377225836 2264.2165621956824 523.7359635147903
193.0331662032539 1003.5038980471397 232.1205001808236
421.39728727253936 2138.5350060324968 494.664561064959
185.14640944099597 917.7676426800055 212.28884579644256
-399.8486818129742 1611.125331146926 369.70821919009023
-346.0109271691166 1995.1443150984621 457.82983949311233
-248.71822585309204 1833.3495147533986 420.7024563197578
-82.91388866012637 2044.852356168331 469.23644516685374
-67.02289015724955 2161.8124528033163 496.07551734036304
-44.37604397847462 2068.244375495328 474.6042596015556
-4.934052124272444 2093.5857297662415 480.4193919058159
144.96936203679314 1558.4932876611826 357.63063671201104
94.05770515439755 961.9967948227562 220.75136862711375
226.7378601075354 2211.5204938731854 507.48212301410445
103.40821552134734 963.9461297666727 221.19868649667225
256.91444327880345 2293.3925615176754 526.2694735355609
123.02979357815909 1053.6155371868283 241.77530849636267
286.372966368956 2356.745947194959 540.8073042962118
126.37642826031532 1000.9834937010847 229.6977260182835
304.496434080506 2324.581920620338 533.4265594484967
137.97449100181473 1016.5781732524161 233.27626897475142
324.3114655800416 2308.987241069007 529.8480164920288
145.61063813660954 1002.9328286450012 230.145043887842
344.826125242483 2300.2152338213828 527.8350860790157
156.1411832620996 1009.7555009487087 231.7106564312967
365.766415326847 2295.3418964615917 526.7167914051195
163.10907704556794 994.1608213973773 228.1321134748288
390.86014902408283 2315.809913372714 531.4136290354836
172.6433773444119 995.1354888693355 228.35577240960805
411.44266040534563 2308.987241069007 529.8480164920288
169.16813389186507 924.9594308883442 212.2523291055025
419.61110186458416 2236.861848144099 513.2972553183648
189.28494938377324 984.4141466777952 225.89552412703637
429.65245053118133 2181.3058022424807 500.5486960359479
188.29114675634196 933.7314381359681 214.26525951851568
320.5651414172576 1553.6199503013916 356.5123420381148
-283.7582736208057 2092.470917954379 476.3207506661445
-80.85882564281151 1994.9652833805494 454.1250027320278
-21.78297716572195 1830.1807609507778 416.61418872337055
-4.791635349735716 2033.9675372100812 463.00330190567445
89.48347025327183 915.577908648258 208.41807310135587
233.2332152891087 2275.781510953178 518.0487567822839
118.88285242444077 1108.63906510444 252.36565401090695
275.9127914005679 2463.967385680669 560.8865502951292
118.81878306715826 1017.9588249507789 231.7236084321784
291.93935570697954 2403.5138922448946 547.1251865759767
129.45277753636972 1025.7592757166851 233.49926826690773
300.7939617164244 2297.2327505594203 522.9318213277895
134.79962256073748 993.5824163073215 226.17467144864924
323.49007731770297 2304.0581449795886 524.4855236831777
143.20502020821075 986.7570218871534 224.62096909326107
348.0406060710146 2322.584215548616 528.7027157906599
155.99046783424043 1009.1833178391342 229.72599111810788
375.3959345413967 2356.7111876494564 536.4712275676007
161.0302358675362 981.881740158462 223.5111816965552
392.99869361049406 2329.409609968784 530.2564181460481
164.8651252799232 950.6799370948365 216.40854235763788
421.5159716351937 2366.4617511068395 538.6908023610124
173.9811366474819 951.6549934405749 216.63049983697906
419.24542770173923 2235.804200777908 508.94850012929606
196.5939721817605 1022.8341066794703 232.83339582888425
432.9161197264584 2198.7520596398526 500.5141159143317
226.61763278712138 1124.2399666362528 255.9169736803656
402.2147320166344 1950.1126914765878 443.9149586823341
-302.4145922149787 2085.4955290625107 470.9059335581549
-66.38831815846585 2143.046621772842 483.9009990772995
-26.64555970830985 2239.6154044562795 505.7062785077286
-4.130086461565109 1753.8451642911107 396.0191153122369
82.71741446202337 846.6838724163982 191.181641874873
236.53085715052282 2308.871804158542 521.3444082002585
107.17231638966736 999.828305560839 225.76173147666455
252.11026329398948 2252.2961536975386 508.56959802889605
119.27402744672592 1022.2634772953749 230.82760447565312
288.267907420198 2374.226434863495 536.1015165016601
119.73151382403779 949.1053085958013 214.30845339199473
309.34794959206124 2363.4965701208907 533.6787076760568
139.69421140739823 1030.067015289996 232.58964725791
324.3114655800416 2310.8226886571974 521.7849188958228
145.18611732571563 1000.8037478101667 225.98198682444666
347.1639294814151 2317.6507844024914 523.3267063302975
152.6747284213387 988.1229985689072 223.1186673032792
368.71739702162836 2315.699899903836 522.8861956347333
157.99192953041288 963.736942335716 217.61228360872641
409.1200297234402 2425.92487407786 547.775049934112
165.2033101522923 953.0070775931118 215.1894747831232
417.0003493597445 2342.0368406356824 528.8330900248503
171.84202431165218 940.3263283518525 212.32615526195573
425.27905138868095 2268.8786719361087 512.313938941192
197.53102638663069 1028.1161307913408 232.1491365623458
430.9963143174719 2189.8678497405695 494.47325577084086
216.39723651224688 1073.9619165097401 242.50113790810505
405.6335572387758 1967.4670168938655 444.2550364765194
-270.80006727651914 1998.4899718159231 447.59561274792526
-92.22050163161083 1843.333767949355 412.8457580472807
-52.97165304132482 1710.6215432584538 383.12261188823874
-20.83135003328231 1751.606200883585 392.30181879029584
-4.924863945270074 2092.1691892447943 468.5766570954843
220.2425049259621 2150.7187001378393 481.68980981270863
105.18570759805402 981.6801326400482 219.86386055879532
263.9023414385329 2358.5694638081477 528.2415019588551
118.93259416205018 1019.7373147205271 228.38740982499115
286.1360987375507 2357.5936386265967 528.0229494135681
119.11624396882691 944.5987757411199 211.55886383788655
315.3485082510901 2410.288198430337 539.8247868590701
148.6896719904504 1096.827504063036 245.65306090266992
323.3531792739799 2304.8990788228566 516.2211119680661
144.05406182999855 993.3900348186571 222.4864911022402
348.1867188359479 2325.391407635422 520.8107154190947
143.02894103835186 926.0580972916558 207.40636547743216
383.6276203215762 2410.288198430337 539.8247868590701
152.71487115540918 931.9130483809603 208.7176807491546
391.84716960242645 2324.4155824538716 520.5921628738076
159.79235219438712 922.1547965654528 206.53215529628386
412.31104930447043 2316.6089810014655 518.843742511511
170.95072750505648 935.8163491071632 209.5918909303029
415.9543602361346 2220.002288027942 497.20704052809083
190.2220035886434 990.4625592740049 221.83083346637898
431.18829485837057 2191.7033577629704 490.8690167147657
224.2590798006119 1113.4165321493986 249.36845417255014
422.1243612514578 2048.257056075011 458.741792557566
-340.77089847236886 1968.0295647420685 437.1677393188396
-322.74020957364746 1970.9581801657916 437.81828654996883
-277.94030342541174 2051.9832068888036 455.8167599445441
-58.13888217427778 1878.2186917478866 417.2176242308767
-44.35513161090701 2070.5311045723843 459.9368924083625
-26.367034693937274 2217.938080899791 492.6811030418669
216.74500598203804 2117.3889513519575 470.34564810643013
112.92302604960074 1054.3015525403937 234.19700320652123
256.1501419175831 2290.177261351633 508.72793474305445
118.59116087737443 1017.2057571732317 225.95673827888436
284.24115768630867 2342.892338978653 520.4377849033805
121.33121544758608 962.5382692637298 213.81318996447214
316.2422084769029 2418.060134854218 537.1351638356973
141.8107903681164 1046.491911410465 232.46221059017662
325.4066499298265 2320.4396207301074 515.4502561313898
146.3181728214327 1009.396116043303 224.22194566253978
351.108974134613 2345.820954402376 521.0883321345098
151.01685871488783 978.1575515235876 217.28277519716136
387.5104909726043 2435.631827396558 541.0384472224727
153.51442545465218 937.1569355914611 208.1751139613522
394.31472104828555 2339.9637235549294 519.7872376722513
168.07788156742942 970.3479103936587 215.54798258081675
422.73171609396843 2376.0833137808504 527.8106535228451
171.66376495033305 940.0855510151845 208.82566119248142
421.25663559738643 2249.1766454195067 499.6202735072453
190.2220035886434 990.848218359722 220.10181319872135
436.1797889217355 2217.938080899791 492.6811030418669
222.49016506072977 1105.0642198849312 245.47315521276113
432.7830516498986 2100.793463950859 466.6592137966978
-99.49464389900629 1990.2743753177856 438.4654045114598
-78.05287421532393 1928.7497013015834 424.9112727723911
-42.682142205497975 1993.2041216995096 439.11083935617734
-24.98601483100658 2102.581319950536 463.2070735589661
-4.750288544225053 2019.571839135025 444.91975295863534
200.65651083998725 1960.9769115005465 432.0110560642842
108.53157503656071 1013.6922480764777 223.3204562722744
258.7706037274816 2314.4996415619 509.89352732686933
117.90829430802295 1011.7390838219951 222.89016637579604
285.07019439622707 2350.6331802698282 517.8538904117191
120.46983765029084 956.0739025692405 210.62690432616247
304.2410911588452 2327.195209216037 512.6904116539787
128.31759949353813 947.2846634240688 208.6905997920098
342.5189053952149 2443.4084823577527 538.2926604944417
148.86529768679614 1027.364397857856 226.332485547623
357.24571026180973 2387.743301104998 526.0293984448082
148.3039810134228 960.956813205447 211.7026290673584
384.24887962574076 2416.0641827949958 532.2686019437446
160.5505032879904 980.4884557502733 216.0055280321421
391.02465245380677 2321.335716452589 511.39954196454363
171.96700759967374 993.1840234044103 218.80241235925152
411.26898262552066 2312.5464773074173 509.46323743039096
164.71164985888655 902.3618855709686 198.79393217300728
416.50287148040206 2224.6540858556996 490.1001920888643
179.9144073350716 937.5188421516557 206.53915030961795
442.32316623049235 2250.0452211639736 495.6939607430831
203.81828725086285 1012.7156659492364 223.10531132403523
422.1243612514578 2049.8458850795055 451.5892463540501
-506.0526152467483 1838.6314524744243 401.69438877309335
-70.22782657247119 1736.0510579421104 379.28317154611415
-66.59984215806041 2153.2113290401867 470.42212160249613
-44.79429132982688 2092.6400484592014 457.1888314303751
-4.607871769688325 1959.7740136363948 428.1609691173354
112.60935097724074 1052.1817610600185 229.87505669958634
255.49502646510842 2286.077363862993 499.4499839155358
116.77018335910381 1002.3569980014662 218.98960833219647
286.9651354474691 2367.164723350441 517.1655175330527
125.8842123761466 999.4261295862572 218.34928783999706
314.0717936427861 2403.3121004713516 525.062803603512
128.44988567858303 948.6244103893018 207.25039930854072
321.7104027493026 2295.8469252470227 501.58438555620046
152.54447804787665 1053.1587171984215 230.0884968636528
355.78458261247715 2378.888197011277 519.7267995018503
153.7297364163529 996.4952611710482 217.70896734779765
372.4449528466153 2342.7408198903663 511.829513431391
163.42889876526513 998.4491734478542 218.1358476759306
391.6826661727025 2326.1325655375153 508.201030642261
167.2324193865067 966.2096208805556 211.09232226173714
416.3056382404447 2341.7638637519635 511.6160732673245
171.30724622769478 938.854849005272 205.11599766787603
420.5252872716965 2246.9991183268735 490.91237735287706
188.72271686085114 983.7948313718093 214.93424521493358
440.01939973970855 2239.1834692196494 489.2048560403453
200.67354993551686 997.4722173094513 217.92240751186412
463.9546933811878 2253.8378112956943 492.40645850134234
175.84297093508525 835.2974983345551 182.49134027683039
-307.57355568399066 1686.8667016108898 365.45414349326654
-290.10866633906517 2004.4980330266135 434.2679306516163
-78.36903775644929 1938.0397852227084 419.86996903079233
-67.20419644261631 2173.5756340571374 470.89803889283013
-43.79049768658146 2046.5231014908477 443.37252402949025
103.93100730861401 971.4632105453212 210.46432133969117
248.50712830537896 2224.396647083653 481.9082448381661
122.3469270088076 1050.6267116058555 227.6148344468491
288.267907420198 2378.814340510374 515.3623321336099
123.54618692634526 981.2364822811896 212.58166863687117
310.36932127870443 2375.8823589896137 514.727127944456
134.79962256073748 995.8963898849923 215.75768958264115
332.6622462471512 2374.9050318160266 514.515393214738
148.2992699389376 1024.2388779190107 221.89799674446314
347.7483805411481 2326.038673136685 503.928656728838
151.01685871488783 979.281827934016 212.15819917743516
381.76384240908277 2402.2701926764585 520.443965646842
166.78702682208564 1019.3522420510765 220.83932309587314
400.5658513777953 2379.791667683961 515.574066863328
162.4978311733397 939.2114138169554 203.4770752589972
414.04782710272013 2329.947981831032 504.77559564771
171.1289868663756 938.2340866433686 203.2653405292792
422.5364951673438 2258.6030981591925 489.3189603782961
186.8486084511108 974.3951920660818 211.09952552884516
431.18829485837057 2195.076831876048 475.5562029466261
205.39065590853588 1021.3068963982502 221.26279255530915
427.55426013368236 2077.7975710456267 450.14803538046624
205.25296490434513 975.3725192396686 211.31126025856318
-367.58420811115514 1918.2380445220872 412.0762120628645
-384.37784450195124 2108.888614696301 453.03179888868436
-318.18546461570173 2064.892329271482 443.58050962118745
-83.5462157423771 2066.8477197348075 444.0005669219651
-64.33351359097578 2081.5131482097468 447.1509966777974
-45.69352313523424 2136.2640811828546 458.9126010995713
-23.80228351992313 2005.2529201400616 430.76876194746944
102.25807358936066 956.1859365660557 205.40802008026577
253.42049419893874 2269.2306326889725 487.4764975524508
119.27402744672592 1024.62460278244 220.11002560748318
278.6747683482851 2300.516880102177 494.19741436489306
128.0991838549058 1017.7807361608016 218.63982505476145
305.6454772279796 2340.602384600345 502.80858903083464
140.8847870728022 1041.2454217207048 223.6805126640931
329.51359124151975 2353.312422611959 505.53896148588933
141.3654300276705 976.717536430971 209.818621738431
351.108974134613 2349.4016416853087 504.69884688433405
154.18188269993038 1000.1822219908742 214.8593093477627
371.35774906432744 2337.6692989053568 502.1785030796682
173.66319379557527 1061.77702158562 228.09111432225833
398.26280336166013 2367.000155855236 508.4793625913328
169.76880592927478 981.6060125892841 210.8687649903751
405.8849714509467 2284.8737563955747 490.8369559586719
171.1289868663756 938.5874223961283 201.62750437326702
421.6223097602314 2254.565204214033 484.32606779661853
193.97022040812405 1011.9145647708258 217.37965315242852
437.7156332489247 2229.145128190805 478.8653228865092
210.89394621039136 1049.066983574006 225.36074186720367
455.70929137484677 2215.457394947528 475.92492178106573
196.2037359907267 932.7212510061524 200.36733247093412
364.5158721531537 1695.3235317030067 364.1896797742136
-23.918335609245037 2015.782302020445 429.3515003597345
-4.704347649213205 2003.0675179708255 426.64331525314714
86.88799504372057 812.7681188641387 173.11552489031507
246.32341013046351 2206.5040627647377 469.9742769585449
119.27402744672592 1025.0072064616334 218.32138397719638
299.87442135905565 2476.4487087412745 527.4711299907073
128.83750768115885 1024.0291461501242 218.11306204592043
309.09260667040047 2367.8840141637543 504.3473956190768
126.0687343477751 932.0914768682601 198.53080050598106
334.3050227718285 2388.4232807054473 508.72215617587176
136.41268723390826 942.8501402948613 200.82234175001653
352.27787625407905 2358.103411048662 502.26417630631727
146.94754216269027 953.6088037214623 203.11388299405198
164.3883639243567 1005.4460002314495 214.15494535167738
169.26152862072115 979.0383718207013 208.5302532072267
414.22150488254505 2332.6738429494235 496.84780609314254
170.05943069846077 933.0695371797693 198.739122437257
426.01039971437086 2278.8805258164175 485.39009987296527
181.78851574481192 948.7185021639164 202.07227333767221
438.099594330722 2231.9336308639763 475.3906471717196
206.3733863195815 1026.9633270846518 218.7380278397483
424.7387570095659 2065.6633779074136 439.97591885480796
238.15925186295757 1132.5938407276444 241.23679641755098
375.44714398242934 1746.8157163554172 372.06296925884806
-458.82665655860046 2090.888694474822 441.53535228492836
-246.7348269228441 1825.7362208189131 385.54280176119624
-65.60265758854317 2124.1550564833124 448.56024792259217
-44.31330687577179 2073.2770910585623 437.8162898885181
-24.66106898090524 2079.147625530649 439.0559773539882
-4.334523444367831 1846.283091471216 389.88170789034154
259.53490508870203 2325.7100733582834 491.1228509037318
121.32262715478038 1042.998291207375 220.25113969851833
291.70248807557425 2409.854400791524 508.89170457546965
131.05247915991802 1042.0198687953605 220.04452512093997
311.9013788086693 2390.2859525512354 504.75941302390265
138.76820811208404 1026.3651102031297 216.7386918796864
338.0012699523524 2415.7249352636104 510.1313920409397
133.15802768372166 920.695489705572 194.4243175012249
352.5701017839455 2360.9332801908026 498.56097569655225
144.68681074480273 939.285515533846 198.3499944752135
376.3278234976434 2370.717504310947 500.6271214723357
157.99192953041288 966.6813430702498 204.13520264740723
399.2498239400038 2374.6311939590046 501.4535797826491
175.517948759549 1015.602463670971 214.4659315263246
424.4684938922181 2391.26437496325 504.966027601481
167.74205900131193 920.695489705572 194.4243175012249
436.9806245997195 2338.429564714471 493.8088404122503
179.72699649409756 938.3070931218316 198.14337989763516
443.0910883940869 2258.198926929288 476.8664450508258
205.39065590853588 1022.451420555072 215.91223356937303
427.35315276767403 2079.147625530649 439.0559773539882
215.94750816589416 1027.343532615144 216.94530645726476
393.7360026198713 1832.585177703014 386.9891038042447
-483.7624039533304 1887.0907938411863 395.0599141900399
-66.1163587304157 2141.5739921807653 448.3356287592361
-40.44451887576339 1892.963483033638 396.28935375702133
229.18122245737717 2054.462435826063 430.0989418490113
128.1512928482952 1102.1080051167924 230.72482540351913
277.3719963755562 2292.306348120362 479.89124431176003
128.0991838549058 1018.9115748903915 213.3077648712819
304.2410911588452 2332.4363909354497 488.2924146861333
129.77274752903188 960.1846829658733 201.01336920146738
326.36493623588825 2333.415172467525 488.4973212806302
145.044610388751 1003.2510703771867 210.02925935933138
351.108974134613 2352.0120215769557 492.3905465760715
149.35898900843696 969.9724982866263 203.06243514643648
387.044546494481 2439.1235779316576 510.62723348629635
177.341143572093 1085.4687190715122 227.2414132970717
