# .PCD v.7 - Point Cloud Data file format
VERSION .7
FIELDS x y z
SIZE 4 4 4
TYPE F F F
WIDTH 855
HEIGHT 1
VIEWPOINT 0 0 0 1 0 0 0
POINTS 855
DATA ascii
-1703.910263328894 3284.531845412786 1100.5210386309197
-1678.488244064049 3596.4865154880767 1205.0451211105885
-1579.2682682726074 3740.611469443834 1253.3358826209521
-1260.7295813201408 3051.2769857212315 1022.3662535549364
-1325.7712586086898 3435.2941327744006 1151.0357167897869
-1216.498982501685 3394.5219418527063 1137.3745145204077
-1112.6851892045006 3274.1017500607245 1097.0263124689855
-1021.0946839289975 3089.2046051832726 1035.0743486892427
-1066.515362408855 3420.123084989584 1145.9524787360644
-954.9588734511561 3157.474320214947 1057.9489199309937
-1085.5392028929396 3704.5802309548944 1241.2631922433611
-1001.0807048690988 3530.113181429504 1182.8059546255527
-825.7583357937814 3120.494891239457 1045.5585271750454
-708.529698944025 3129.0286056184163 1048.417848580264
-680.23846718262 3282.635464439684 1099.8856338742044
-76.74106542978942 430.47848089417 144.23687977437572
-62.82164554851087 372.6388612145568 124.85703469455873
-70.0550383741957 440.90857624623135 147.73160593630996
-74.96713464636984 502.54095787204864 168.38226052955758
-65.58439129353198 470.3024813293135 157.5803796653973
-60.390206170183816 465.5615288965583 155.991867773609
-49.140590764234794 409.6182901900472 137.2474274505073
-42.42641900893523 384.9653375397203 128.98716561320825
-49.80880250515757 495.90362446619145 166.15834388105398
-43.24120546572736 476.9398147351707 159.80429631390086
-36.81074773655308 455.13143354449693 152.49714161167478
-40.173296260084015 565.121529984417 189.35061750116284
-33.93905537079927 553.7432441458045 185.538188960871
-28.413092614927216 551.8468631727025 184.90278420415567
-23.870347354964885 572.7070538768253 191.8922365280241
-17.193879395615415 539.520386847539 180.77265328550615
-11.020817708132011 499.69638641239555 167.42915339448462
-6.6846003449418445 546.1577202533963 182.99656993400976
-1.4218707006166866 586.9299111750908 196.65777220338893
4.02449679660907 544.2613392802942 182.36116517729442
9.187638757215321 533.8312439282329 178.8664390153602
13.530219591507464 500.6445768989466 167.74685577284225
17.9887116962963 488.3181005737831 163.61672485419274
25.874919806164176 554.6914346323556 185.85589133922863
29.654453612902003 525.2975295492735 176.0071176101413
38.50897819927316 581.2407682557846 194.751557933243
42.39932784049043 557.5360060920087 186.8089984743016
44.112639563601846 513.9192437106611 172.19468906984943
44.42463251909233 464.61333841000726 155.67416539525135
418.9004061401974 3353.7497509310115 1123.7133122510286
551.8335769241135 3368.920798715828 1128.796550304751
578.8875691985469 3336.682322173093 1117.9946694405908
567.9263400276404 3100.582891021885 1038.8867772295346
704.471274720803 3653.3779446811386 1224.107263812048
720.7687997738088 3398.31470379891 1138.6453240338383
688.2496917124712 3104.3756529680895 1040.1575867429651
804.5832146083791 3340.475084119297 1119.2654789540213
807.5080337209727 3224.795844760071 1080.5057887943874
804.4596455897146 3094.893748102579 1036.9805629593886
924.3035153661667 3153.681558268743 1056.6781104175632
938.8812230177058 3152.733367782192 1056.3604080392056
1152.089195091432 3639.1550873828733 1219.341728136683
1123.0716447947484 3445.724228126462 1154.5304429517212
-1610.9161249096471 3056.8516773338574 1018.3034040899511
-1773.483658696189 3478.0938079161765 1158.6282679682683
-1561.534290938232 3226.6767705190714 1074.8758154282816
-1696.1003722954854 3569.173187501543 1188.9687790770938
-1387.5630826919153 3032.1843453628207 1010.0861823313109
-1556.1532344788745 3537.8646507690733 1178.539228383435
-1331.5724188280276 3090.057701141022 1029.3650487650436
-1451.9154221169802 3516.0435494100793 1171.2701475969457
-1298.64139766546 3215.291848070901 1071.0832515396785
-1120.8493969413241 2906.001454895594 968.0519325659591
-1232.5240988096436 3273.1652038491025 1090.3621179734114
-1268.0026117928905 3451.5289888704447 1149.7789522281944
-1191.6932769925725 3327.2435854779137 1108.3767964442764
-1193.7124043738243 3421.1691956753225 1139.6654485252525
-1214.5121569973248 3575.8143922629756 1191.1811080121122
-1006.0509316795831 3045.4667548856864 1014.510840201348
-925.4211064945588 3061.5953950205953 1019.8836390435357
-1122.6193776063624 3961.0042684260875 1319.4961862431862
-836.0458143010877 3161.2134664420896 1053.0685730688135
-821.709602007667 3222.8817963696815 1073.611627465414
-807.0594515362777 3288.3451004466633 1095.4188698248822
-760.2074108083312 3222.8817963696815 1073.611627465414
-710.0326407296639 3137.4948780084005 1045.1673983008902
-74.03653448953251 415.54966935823387 138.4285819340157
-65.21941827937006 387.08736323780687 128.94717221250778
-58.00255865390397 365.2662618788129 121.67809142601837
-58.1348912069019 389.93359384984956 129.89531318465856
-61.88204662373582 444.0119754786608 147.9099916555236
-63.46506391815652 489.551665271344 163.08024720993632
-46.91985747539881 425.9858482690571 141.90509883190194
-48.38025176409187 481.96171697256347 160.55187128420084
-42.38153935308865 467.73056391234996 155.8111664234469
-39.41817570122559 487.65417819664884 162.44815322850243
-32.318672355810676 628.0682217240886 209.2231078546082
-23.27754071535483 558.8099434977163 186.15167753227226
-11.397240324349044 517.0652278544234 172.2456099407273
4.192768439672864 567.3486353338444 188.99610044872463
8.844938199663773 514.2189972423807 171.2974689685765
20.43377930550162 555.0149693483261 184.88748956940452
23.707618830947006 508.5265360182953 169.40118702427492
26.65689151484693 472.4742815990878 157.39140137703154
33.29487511519539 502.8340747942099 167.50490507997333
41.38982003476447 544.5787904375028 181.4109726715183
44.8451372685325 522.7576890785089 174.14189188502888
473.1504338374655 3516.0435494100793 1171.2701475969457
468.4651056204738 3246.6003848033706 1081.5128022333372
615.8614072593311 3364.2445834344685 1120.7026290822366
619.8177060221963 3216.2405916082485 1071.3992985303955
745.1061976547937 3596.6867500846224 1198.1341418078848
749.7282604790065 3536.9159072317257 1178.223181392718
783.8983202186332 3537.8646507690733 1178.539228383435
734.6816372653188 3178.2908501143456 1058.7574189017182
887.4852035106901 3686.817386132641 1228.1586059259932
893.9334745543846 3572.0194181135857 1189.9169200492445
1005.9436998139479 3490.427473901695 1162.7368788475885
936.6222606766106 3146.982313381876 1048.3278682080595
1127.1742906639727 3562.53198274011 1186.7564501420752
1628.2358204890606 3220.035565757639 1072.6634864932632
-1617.8626470598902 3470.6177602782604 1149.4121810913214
-1510.249009273008 3435.493893448311 1137.7797273986575
-1251.467513947656 3171.5902453746357 1050.379129383508
-1328.9825065425723 3531.3725569570925 1169.5331820732265
-1215.372486894395 3310.1871252982205 1096.2801628734785
-1172.6136181200834 3234.243629449681 1071.1289116460973
-1193.392297917854 3333.9194677508895 1104.1399288820353
-1203.18676844795 3644.338507031795 1206.945668273956
-929.3904872477304 3175.387420167063 1051.636691944877
-848.3178022493046 3329.1729992603555 1102.567975680324
-797.0468847688052 3249.432328619389 1076.1591618915736
-761.102562307664 3228.5478672610407 1069.2425678040438
-72.01356632874311 453.76238769502424 150.27872608360275
-75.8158191895363 508.82142218521545 168.51338322345413
-48.92384027944926 351.2386682994957 116.3245369266381
-56.331393942859854 434.7765137328893 143.99091327675745
-46.069303841470116 384.4639477332318 127.32820933861738
-54.13025873553805 491.734135619294 162.85435169729334
-47.52312131945244 473.6975553552659 156.88092953079033
-41.693806462977676 460.4074435817714 152.4794605659986
-45.016476919493044 557.2354007886595 184.54730588090965
-39.63405738410974 558.1846944867661 184.8616965212519
-36.26364820441565 592.359267618609 196.17975957357345
-30.12178375156373 585.7142117318618 193.9790250911776
-22.921856731588797 550.5903449019122 182.3465713985138
-17.012573110248645 534.4523520340975 177.00193051269528
-10.978992972996785 498.37919150604125 165.0550861796892
-6.754231598534989 552.4889322981257 182.97535267919832
-1.3690386713530618 565.7790440716202 187.37682164399004
4.059553388914027 549.6410512038055 182.03218075817153
9.04076708969323 525.9087087511368 174.1724147496149
14.145229572939622 524.0101213549234 173.54363346893038
20.43377930550162 555.336813392446 183.9185246002251
21.982624177202727 471.7989679590524 156.2521482501058
29.11917466682074 516.4157717700695 171.02850834619224
32.5410288861721 491.734135619294 162.85435169729334
51.0306734435025 595.2071487129292 197.12293149460027
46.50987037202932 486.98766712876034 161.28239849558202
40.17127358449944 381.6160666389116 126.3850374175906
413.4524506178765 3313.9843000906476 1097.5377254348477
447.99915605387656 3331.0715866565693 1103.1967569610085
478.04796868109133 3314.9335937887545 1097.85211607519
506.4268432586636 3290.251957637979 1089.677959426291
746.91275735489 3525.676794768452 1167.6468382311728
747.5308197096969 3375.688390467586 1117.973117057095
737.9712565366561 3194.373294129198 1057.9245047517222
932.932850319395 3877.864756766054 1284.285765798153
907.2296962210634 3627.2512204658738 1201.2866367477952
855.3296955744567 3178.235301261383 1052.5798638659037
1004.0296998414832 3485.8064594479683 1154.4424313367977
1152.389374662847 3644.338507031795 1206.945668273956
-1723.5859014735693 3328.242748903027 1095.8175963062558
-1885.269550719078 3765.1695937932645 1239.6749291546798
-1504.823964475951 3425.1265275526016 1127.7163961987324
-1643.9216137879946 3819.310528920968 1257.5007290945932
-1276.1090089704485 3392.83193466941 1117.0834629012402
-1351.9692474883432 3638.840745161957 1198.0813959615484
-1133.6345715208067 3641.690268063415 1199.0195959583862
-999.408911104288 3310.195770527126 1089.8756629929514
-943.5605664254986 3225.6599244505364 1062.042396420104
-876.9448142203786 3319.694180198653 1093.002996315743
-824.8542074907696 3238.957697990674 1066.4206630720128
-772.3647434350355 3150.6224880454743 1037.3364631700488
-809.8709164899583 3582.8001280999483 1179.6301293570768
-679.4525186359041 3284.5500644140034 1081.4318630214134
-620.8838255251621 3147.772965144016 1036.398263173211
-76.08127823434157 479.66968841210866 157.9303328009872
-57.71054893531867 387.5351145982977 127.5951995699065
-65.71661788888184 472.07096067488715 155.42846614275376
-63.47326307046994 530.0112596712013 174.50519941178388
-57.36971437415133 521.462690966827 171.69059942127126
-35.67614367450667 394.1840013683665 129.78433289586079
-35.813789985354774 443.5757316603064 146.04646617437828
-33.5322516249164 548.0582380471023 180.44713272508835
-28.60837160197139 556.6068067514766 183.261732715601
-23.988908682886894 576.553467061683 189.82913269346383
-6.905099314653468 565.1553754558507 186.07633270611365
-1.4448411481226104 597.4499683390422 196.70926600360585
4.318972171970709 585.1020357660573 192.64373268397648
9.252915053891806 538.5598283755754 177.31979940229652
13.427717927935436 497.7166667880098 163.87226611429168
25.388382852543995 545.2087151456443 179.5089327282508
29.065646772212613 515.7636451639108 169.81419942759615
33.985900825133406 513.8639632296055 169.1887327630378
42.18300473926344 555.6569657843239 182.94899938332182
51.0306734435025 595.5502864047369 196.0837993390475
49.59239589376225 519.5630090325217 171.06513275671287
41.37041607955913 393.23416040121384 129.4715995635816
466.13783887718097 3234.2084931549107 1064.8569964106168
585.6922090010785 3581.8502871327955 1179.3173960247975
557.1583176784925 3047.089822625831 1003.2485299516178
710.5048984077447 3691.0819983553547 1215.2817292369036
702.8702441990686 3319.694180198653 1093.002996315743
706.9589838818084 3194.315172534498 1051.722196454891
833.587491717452 3466.91953010732 1141.4766628190164
837.6619650007619 3351.0389321146918 1103.3231962809562
827.1343659923659 3187.666285764429 1049.5330631289369
1002.9941412261998 3729.0756370414624 1227.7910625280708
909.423415488228 3159.171056749848 1040.1510631605613
926.456930141682 3116.4282132279773 1026.0780632079982
1149.7119657398268 3749.022297351669 1234.3584625059336
1138.280934806334 3601.796947443002 1185.8847960026603
-1879.9021196959259 3573.4488889968934 1169.6422691262774
-1838.4415440579405 3523.0784658275225 1153.1552903327422
-1782.1209249539788 3443.2460970307834 1127.0249843203467
-1602.4703811689171 3507.8723003424293 1148.178089187524
-1589.6766269481684 3773.98019633156 1235.2791092288426
-1184.2948949431793 3150.52741144274 1031.2138622748962
-907.6410914333061 3007.9696100199917 984.5526015384755
-870.2095683288167 2976.6068937069867 974.2871241764631
-1020.7097382979047 3607.662761338353 1180.8409717030183
-948.9451000390352 3469.8568866296964 1135.7350863244785
-829.5220474427958 3141.973943357375 1028.414186630711
-824.2903803919281 3364.3641135768626 1101.205753379527
-748.3466534421725 3178.0885863844715 1040.2350393506042
-708.314992974648 3135.3212459576466 1026.236661129678
-677.8812032169042 3133.42047527201 1025.6145109865258
-623.1320469814995 3160.9816502137414 1034.6356880622336
-58.7558386364222 370.65028369914586 121.31927791469367
-60.1631008841876 432.42533098233685 141.5391575671426
-47.967780868374106 370.65028369914586 121.31927791469367
-44.81803879886229 374.45182507041915 122.56357820099822
-53.60776589060042 487.5476808657996 159.5815117185586
-44.014904967102204 486.59729552298126 159.27043664698246
-44.172897283863705 547.4219574633539 179.17924122785527
-42.73468092096186 602.5443073468166 197.22159537927126
-33.76471090827803 552.1738841774455 180.73461658573595
-23.23802027271416 558.8265815771738 182.9121420867689
-1.2358100758187034 511.3073144362576 167.35838850796205
4.347017445814675 589.2389125473601 192.86654437720532
8.567513938788709 498.95230497961944 163.31441257747224
15.19587162455289 563.5785082912654 184.46751744464962
17.674345860827042 480.8949834660713 157.40398621752564
25.830689174016886 555.0250402059005 181.66784180046437
30.88559518888891 548.3723428061722 179.4903162994314
32.35256732891627 489.4484515514362 160.20366186171088
42.47143554089943 559.7769669199921 183.22321715834505
42.97319868926526 501.8034610080744 164.24763779220066
49.68305840910734 520.8111678644409 170.4691392237234
446.72244144557254 3325.3983145213115 1088.4516754449055
491.05328283478656 3409.032224689324 1115.8262817436057
560.6276884991895 3238.913248324844 1060.143843931477
665.0122189497966 3639.025477651358 1191.106449065031
811.8571500896652 3670.3881939643625 1201.3719264270435
792.359628489432 3433.7422436026 1123.9142336045852
887.7602287805694 3553.4907967977088 1163.1096926231785
924.7342494646474 3565.845806254347 1167.1536685536682
877.0450552291248 3262.672881895302 1067.9207207208804
1071.0305199717768 3604.8116053098984 1179.90774648829
1018.6325675683239 3323.4975438356746 1087.8295253017532
1051.9627439593949 3060.2408038749995 1001.6617304751632
-1936.5572826959535 3514.625539454131 1143.6010306994128
-1942.1362282723385 3635.393246031694 1182.896845336541
-1769.3317601599397 3420.483783933038 1112.96886023425
-1922.841774358535 3844.5971471896783 1250.968335259125
-1503.916933180474 3294.010516414802 1071.816550417415
-1409.2508835432027 3277.8447604162307 1066.556480741579
-1242.8522033158704 3155.1752001917766 1026.641834377882
-1248.5596285875931 3244.5623215956425 1055.7269255266224
-1209.7957849183956 3300.66700417892 1073.9824614604065
-1226.4848747102103 3523.183880865139 1146.3857734689732
-967.6784312716811 2855.633250806481 929.1758374432729
-971.8979751144736 3125.69646866497 1017.0499426160634
-932.5904674063543 3092.4140298443813 1006.2203874011068
-1008.3407583290681 3565.9755879201816 1160.3094873167745
-926.5925175675598 3390.0541255827857 1103.0675526091468
-884.4722375184076 3352.0170526449706 1090.690918077768
-852.6981279647573 3482.294027456988 1133.0808913477408
-834.2811973781157 3545.055197804383 1153.502338324516
-755.5503062375831 3346.311491704298 1088.8344228980611
-666.7785083507492 3083.855688433373 1003.4356446315466
-652.1408066375262 3156.1261270152218 1026.9512502411665
-70.80831835671394 446.9356070193294 145.4254557437024
-51.83282537714624 372.7633147905896 121.29101840751349
-52.5185703353737 406.045753611178 132.12057362247006
-53.12188862707789 444.08282654899324 144.497208153849
-59.982178598839454 545.8319966576491 177.6047055252876
-45.23744013374732 451.6902411365563 146.97253506012476
-41.10533497248428 509.6967773667246 165.84690272047763
-41.45398859052294 584.8199964189098 190.290755919951
-31.905036641384925 522.0588260715145 169.86930894317578
-28.65719134873243 558.194045362439 181.62711174798577
-23.949388240246225 576.2616550079014 187.50601315039074
-17.737798251715727 558.194045362439 181.62711174798577
-11.397240324349044 518.2551187777331 168.6316454900379
-1.2587805233246272 521.1078992480692 169.5598930798913
4.241847668899804 575.3107281844559 187.19659728710627
9.04076708969323 526.8134601887415 171.41638825959814
13.120212937219359 486.87453360403543 158.42092200165027
20.678286066422153 562.948679479666 183.17419106440812
23.221081877326824 499.2365823088254 162.44332822434842
30.832067294280783 547.7338503045398 178.22353725185656
32.72949044342792 495.43287501504386 161.20566477121054
42.54354324130843 561.0468258327752 182.55535933783918
44.27541683136421 517.3041919542876 168.3222296267534
48.14179564824087 504.9421432494977 164.29982340405525
48.66519959117221 463.1013630179009 150.68552541953844
447.99915605387656 3336.802223469844 1085.7402642652164
569.836795605715 3119.9909077242974 1015.1934474363565
895.8979202569279 3456.6190032239624 1124.72666303906
1022.6228424311404 3556.4663196857277 1157.2153286839298
1006.085352665289 3388.152271935895 1102.4487208825778
-1720.634555751868 3328.2259950307057 1076.529482179596
-1675.7602391028881 3744.9678434650823 1211.3264842363894
-1335.8129534907152 3045.6407690375327 985.1260355794417
-1364.1579869971195 3313.002548512555 1071.6053907802611
-1295.9590460031238 3217.856007774113 1040.8298195344178
-1147.3674968274195 3297.7791019944043 1066.6812993809262
-999.7827015756604 3035.174649556304 981.7407227423989
-1222.1937206093544 3818.2306798336826 1235.0236740956886
-848.2598378377642 2904.823888744638 939.5781901355937
-959.6015637754364 3512.8102840632837 1136.2340903965319
-877.3449297856367 3450.9650325832963 1116.2299690867337
-753.8326584825672 3340.5950453267033 1080.5303064415557
-722.7031936024927 3344.4009069562408 1081.7613292913893
-72.61619031475769 458.6063263592911 148.33825340496435
-71.57239647370403 481.4414961365172 155.72439050396673
-47.651347458311484 433.8682257672961 140.3366048810451
-41.33273477483439 412.9359868048389 133.5659792069596
-33.52697839290988 371.0715088799243 120.02472785878858
-34.35669788744954 426.25650250822076 137.87455918137766
-36.67045195029852 600.3746720595699 194.19385456127074
-27.241418692662172 530.917697320507 171.7276875518052
-22.842815846307456 549.9470054681955 177.88280180097385
-11.648188735160398 529.9662319131227 171.41993183934676
-6.6033638824165095 541.3838168017357 175.11300038884795
-1.3989002531107626 579.4424330971126 187.42322888718525
3.8211685612403192 518.5486470245096 167.72686328984557
10.183102281531724 593.7144142078789 192.03956457406173
18.268147994491194 497.61640806205236 160.95623761576007
24.857615266776524 534.7235589500448 172.95871040163894
40.01977372699352 528.0633010983538 170.8044204144299
50.379564372453025 588.9570871709568 190.50078601176958
50.58968356255821 530.917697320507 171.7276875518052
544.5622749062433 3546.1115733217384 1147.005540332577
546.086928360592 3345.3523723636254 1082.0690850038477
699.7477749147899 3833.4541263518336 1239.9477654950235
692.586864428342 3604.150963172188 1165.7786387925414
708.2162153751242 3509.9558878411303 1135.3108232591567
697.6414526828523 3300.6334982165577 1067.6045665183015
913.0637785990065 3803.9586987229163 1230.4073384088122
856.6565673817316 3432.887189842992 1110.3826105500236
995.1748365810656 3580.3643279875773 1158.0847459810805
1032.7396994284538 3593.6848436909595 1162.3933259554985
1030.3691978320626 3471.8972715457535 1123.0005947608192
1203.8914503173814 3932.406528719813 1271.9543595907005
1068.639274238014 3387.2168502885397 1095.6103363520187
-2205.647765469516 3947.948532649533 1269.3744063712634
-2227.6390993339874 4078.3726823898237 1311.3093698805142
-1633.569856961679 3161.5956298358087 1016.540246819138
-1604.2070058030747 3517.644038615873 1131.0196362531512
-1419.8832310488142 3174.9236451377365 1020.8255715573097
-1647.601120011345 3836.5644047691385 1233.561335345115
-1575.6653748849133 3747.0763020276254 1204.788440674534
-1192.8689756305507 3178.7316495097157 1022.0499500539302
-1179.4724679238982 3221.5716986944826 1035.8242081409103
-1300.7704203956564 3644.2601839841846 1171.7302212657814
-1278.788413226867 3677.580222239003 1182.4435331112106
-942.1149846195723 2861.7152855424392 920.1204402102767
-1136.5913648737562 3659.4922014721014 1176.6277352522634
-1036.9763622820963 3442.4359522692816 1106.838160944897
-880.7676665397026 3017.8434647935906 970.3199585717157
-963.2403562707929 3528.116050638816 1134.3866771188575
-972.7940042152812 3690.9082375409307 1186.7288578493822
-793.1662599302737 3121.6115839300264 1003.6842726046232
-767.9405860261522 3139.699604696928 1009.5000704635704
-815.6679776631366 3616.6521522873345 1162.8534771652833
-743.8805560323808 3444.3399544552713 1107.4503501932072
-671.986007442103 3255.8437380422965 1046.8436146104946
-559.1922466606968 2987.3794298177563 960.524930598752
-53.085273045662795 483.61655524137035 155.4960690707986
-40.18989418198183 401.7444612438155 129.17193139345866
-36.27790995335377 401.7444612438155 129.17193139345866
-35.04689940750992 435.06449949863435 139.8852432388877
-35.798729637692375 586.4326732848112 188.55428847955105
-29.53594679043121 575.9606612618683 185.1872476138448
-26.399655683967787 635.936730120542 204.47120893561706
-17.979539965538088 566.44065033192 182.12630137229363
-12.212822659485948 555.9686383089769 178.75926050658737
-6.823862852128133 559.7766426809562 179.98363900320783
-1.3253948210918063 549.3046306580131 176.61659813750157
4.010474159687088 544.544625193039 175.086125016726
8.649109309634316 504.5605792872565 162.23015080221114
15.580252862947988 578.8166645408527 186.10553148631013
17.674345860827042 481.7125530553807 154.88387982248835
25.830689174016886 555.9686383089769 178.75926050658737
31.849097291835186 566.44065033192 182.12630137229363
38.63461923744371 585.4806721918164 188.24819385539593
37.135465710633625 490.2805628923341 157.6387314398844
53.56169811266592 510.2725858452254 164.06671854714182
562.0843554428277 3445.2919555482663 1107.7564448173625
709.7520597023134 3519.5480408018625 1131.6318255014614
746.7435745935554 3241.563721647374 1042.2521952481677
854.0448095543483 3424.34793150238 1101.0223630859498
883.1764508963252 3291.067778483105 1058.1691157042337
1019.7699096084478 3670.9162145880396 1180.3008707421247
1213.2126519651326 3965.0845523234398 1274.8841096060555
-1900.978400369872 3509.1348089274247 1121.5297110526699
-1598.997131900602 3508.18227504878 1121.2252784492352
-1460.1716726847899 3332.916041378138 1065.2096794172887
-1504.2061237914775 3617.7236710929315 1156.235027844202
-1289.8279564892118 3206.22903551838 1024.7201431605013
-1238.3572586384169 3149.0770027996923 1006.4541869544317
-1173.2200407219912 3128.121257469507 999.7566696788729
-1298.9815515149435 3737.7429398021754 1194.593535876948
-1164.8876220603154 3443.409971300934 1100.52386141569
-983.1718918002655 2988.0987773087218 955.0050769740025
-971.5419807485274 3038.583072876896 971.1400049560306
-959.953403121348 3291.0045507177665 1051.8146448661712
-842.2552504138413 2934.756880104613 937.9568511816709
-854.2662904563865 3026.2001324545136 967.1823811113823
-972.7940042152812 3692.9738475058703 1180.285203515527
-809.8568582636647 3189.0834257027736 1019.2403562986804
-752.9271962936922 3488.1790635972393 1114.8321937771111
-622.1952880413589 3163.3650109793643 1011.0206760059491
-44.590536063842684 373.3932804287596 119.337580546321
-44.094599540894755 441.0231858125401 140.95229539016995
-34.89352129194094 433.40291478338173 138.51683456269402
-41.38658373102615 584.8558014879042 186.9216185087783
-33.706596087437624 552.4696496139811 176.57090999200557
-27.680796413511565 540.0867091915987 172.61328614735717
-17.919104537082497 564.8525900363634 180.52853383665396
-11.459977427051882 521.9885654973476 166.8290666821018
-6.916704523585659 567.7101916722978 181.44183164695744
-1.4402470586214255 597.2387419102864 190.87924235342672
4.080587344297002 554.3747173712707 177.17977519887455
8.942852644678501 521.9885654973476 166.8290666821018
14.042727909367594 521.9885654973476 166.8290666821018
19.525611336368215 532.4664381624405 170.17782531988124
24.5480008417455 528.6563026478613 168.96009490614327
32.91965518399771 585.8083353665489 187.2260511122128
34.99102913049779 530.5613704051508 169.56896011301225
36.991250309815634 488.6498797447798 156.17392556189458
41.7523691810475 488.6498797447798 156.17392556189458
50.13637098583278 526.7512348905716 168.35122969927428
606.8150253426714 3721.549863865214 1189.4181816185617
597.4764567573521 3459.603047237895 1105.6992156740762
749.4227706032253 3395.783277368694 1085.3022312439653
928.822007894487 3873.9552844483815 1238.1273981680804
853.8073770245861 3425.311827606683 1094.7396419504346
910.4393170368891 3518.660147713873 1124.5740370870149
884.964774632592 3299.57735562557 1054.5545382970815
1032.628160173158 3483.4163942040154 1113.3100307599386
960.2744489571368 3047.155877784699 973.879898386941
1117.6748670140669 2747.1077060115886 877.983628305076
-1802.780345005888 3492.9786903372096 1109.6507868920537
-1927.1221542668277 3861.8143665065136 1226.822643516126
-1816.7410728822033 3704.558845659136 1176.8656503818315
-1604.6411619616142 3522.523666981262 1119.0366462081938
-1416.902966395938 3171.7962023034743 1007.6174130359494
-1331.2225309701287 3040.273403049304 965.8352005963577
-1255.7455673379413 3350.0191259305025 1064.2353385881497
-1150.3869462670336 3402.4376328796284 1080.8876696329144
-983.1718918002655 2989.7610236256005 949.7884088623117
-947.1772915761505 2964.028302032393 941.6136281676089
-1129.7907401619725 3641.656637320185 1156.8828531281138
-1003.7105276513653 3335.723169489832 1059.6937937577593
-870.9375243274271 3086.9735274221616 980.6709137089664
-984.8131974932634 3611.1585969134208 1147.1942241566142
-890.9960043766994 3384.329421388112 1075.1350461810866
-814.4528201235839 3208.9656890492183 1019.4254295949644
-759.5579719882683 3108.8939939645234 987.6346157822317
-731.7498338638042 3391.9539314898034 1077.5572034239615
-691.6347211100007 3354.7844447440593 1065.7491868649465
-631.0008220786802 3209.9187528119296 1019.7281992503238
-556.1628431574361 2974.5120034222186 944.9440943765619
-48.95167206051815 489.8747740336496 155.62360285471092
-38.21855533467724 540.3871534573527 171.670394588757
-32.89298859567189 539.4340896946413 171.36762493339765
-28.60837160197139 558.495364948869 177.42301804058485
-12.484683437864915 568.9790663386941 180.7534842495378
-6.1971815697898345 508.93604928787715 161.67899596189812
-1.3208007315906216 548.0116635590438 174.09255183163188
3.6879535104814827 501.3115391861861 159.25683871902325
9.54665838893599 557.5423011861576 177.12024838522547
13.197089184898378 490.82783779636094 155.92637251007028
20.01462485820928 546.105536033621 173.48701252091317
33.936685181552114 604.2424255590153 191.9559614978341
37.75513197024987 572.7913213895397 181.96456287097524
36.847034908997635 487.0155827455154 154.71529388863286
46.781857918064574 491.78090155907233 156.22914216542966
53.261912488901 507.9829855251658 161.37622630653877
475.4469058503523 3309.9904478966246 1051.5190130630565
535.795509010248 3494.884817862632 1110.2563262027722
647.818118747125 3554.9278349134493 1129.330814490412
673.5718079604044 3511.086901828726 1115.4034103438814
649.8541309419343 3226.1208367780227 1024.875283391433
770.2412118118548 3650.2342111845874 1159.607780026348
775.6998663466765 3516.805284404994 1117.2200282760377
774.5956844242108 3366.221209896596 1069.3824227292587
863.0672456853089 3464.386777455868 1100.5676972312729
955.2958291377861 3694.075144269311 1173.5351841728786
1020.089005325785 3337.6292970152545 1060.299333068478
987.2906103845023 3134.62671555773 995.8093964769344
1070.9111412108373 3124.143014167905 992.4789302679814
-1269.4472926574697 3231.7190299941753 1020.4475053492503
-1414.3267774006586 3685.6282239384736 1163.773859007038
-1263.962394663339 3373.8040507876635 1065.3122673135579
-1204.916170689396 3296.5632005576463 1040.9226987289342
-1160.2232188678606 3214.554396609727 1015.0276012193339
-1277.1332379573525 3678.9530887334104 1161.6661185120706
-956.6186086304466 2995.2285255862216 945.7732706704028
-1147.827179614964 3701.8392665793417 1168.892657351959
-1012.8873096184635 3368.082506326181 1063.5056326035856
-824.6882948787338 2924.6628105612676 923.4914425807467
-1011.0644862097637 3709.467992527985 1171.3015036319218
-895.0106301356482 3401.458182351497 1074.044335078423
-811.5501073699506 3199.2969447124397 1010.2099086594083
-844.082663536932 3456.7664454791634 1091.5084706081534
-826.6724096337874 3522.5642067862154 1112.2847697728328
-808.5826806736965 3591.222740324008 1133.9643862924981
-743.2637396509277 3447.230538043359 1088.4974127582
-665.3054447950177 3228.858257763434 1019.5441879942641
-546.3618318233576 2923.709219817687 923.1903367957513
-34.0499416563116 423.39429014972376 133.69096853793658
-39.16222336763224 554.0362220202467 174.9424610822999
-31.091429149619188 510.17104781554553 161.0915949725137
-22.091927436134718 533.0572256614765 168.31813381240215
-16.438436539920538 518.7533645077697 163.80154703747186
-11.564539264889946 527.3356811999938 166.51149910243004
-6.986335777178803 574.0616276354363 181.2656825672023
-1.3070184630870674 542.5931330972811 171.32919166235567
8.877576348002016 518.7533645077697 163.80154703747186
14.734614138478772 548.3146775587638 173.13582637232778
26.67107118481538 575.0152183790167 181.56678835219768
31.581457818794554 562.6185387124708 177.65241314725807
38.76026027561426 588.3654887891431 185.7822693421326
44.05780494989737 582.6439443276604 183.97563463216048
41.01987147611684 480.6097347645513 151.75731563765774
46.328545341339144 487.28486996961453 153.86505613262523
50.06419916874184 477.7489625338099 150.85399828267168
552.5984769775723 3606.4801922212955 1138.7820788524239
642.781463132201 3529.2393419912783 1114.3925102678002
683.2621732757957 3563.568608760175 1125.232318527633
690.170044530651 3428.15872317175 1082.4752970582929
976.2452990750182 3777.1729353221976 1192.6800143665919
1057.8328096670677 3360.4537803775374 1061.0967863236228
1261.8059023689525 3327.078104352221 1050.5580838487856
-2118.4217626875047 3800.2393266530344 1192.6734926876222
-1821.539449862278 3654.25975924708 1146.8590200837543
-1545.595924400256 3396.6487579424556 1066.0099507828108
-1456.072158976595 3263.0726831919096 1024.0882111452845
-1292.4125951142596 2954.8935964460075 927.3687689815632
-1414.0346797822212 3601.7834441665086 1130.3897652261546
-1221.8466001916686 3185.7893828005226 999.8334903550015
-1324.8965175346564 3720.0936818027067 1167.5204489051066
-1101.0225892810147 3173.3858901451144 995.9407573886598
-1108.5933573431473 3472.9779435141963 1089.9652305756829
-883.2015290470575 3618.95751092015 1135.779703179551
-810.559682645798 3455.803876760555 1084.5752926222867
-732.7914734836235 3256.3938794543824 1021.9921241634082
-722.4975881420083 3352.759476238705 1052.2356649019093
-677.4876472691143 3289.787898142019 1032.4725590727899
-714.1850159631618 3637.0856924934387 1141.4690821303582
-651.678153613183 3489.1978954481915 1095.0557275316683
-552.4004445474709 3118.0472306056026 978.5731795388274
-29.696673449449356 487.55267283949297 153.01434967697088
-27.33905818618426 534.304299002184 167.68695855010506
-16.317565683009356 515.2220026092489 161.69813860188702
-12.505595805432527 570.5606621487608 179.06571645171934
-6.580153464552128 540.9831027397114 169.78304553198137
-1.3575534476000997 563.8818584112336 176.96962946984303
4.038519433531053 549.5701361165322 172.4780145086795
8.58383301295783 501.8643951341943 157.5059646381344
15.631503694734002 582.0100399845219 182.65900842065017
17.744204935375766 484.69032838055267 152.11602668473816
26.361456759784357 568.6524325094673 178.46683445689754
31.79556939722706 566.7442028701738 177.86795246207572
37.7844350143146 499.9561654949008 156.9070826433126
48.051133132895785 505.68085441278134 158.70372862777802
52.062769993841314 497.09382103596056 156.00875965107988
44.531114704188354 358.74717218718075 112.58981502649912
541.7861323725115 3537.857751250176 1110.3272183996244
592.2154316948057 3638.0398073130855 1141.768523127769
592.2412292031357 3253.531534995442 1021.0938011711755
723.5746586470163 3596.058755248628 1128.5931192416892
755.9625888252643 3586.5176070521607 1125.5987092675803
745.0082185183255 3381.3829208281077 1061.2188948242363
862.5923806257846 3466.299139776669 1087.8691435938067
831.8260121835218 3106.5978527698417 974.9798875698966
1039.6046459208528 3750.6253560314026 1177.1025608222553
1057.8328096670677 3362.3006244351727 1055.2300748760183
1121.0244148847796 2729.7224990093723 856.7006935925904
-1820.5943228504968 3562.701512119277 1111.297410931482
-1791.3829754915405 3535.0170684291757 1102.6619272988419
-1457.7863149780273 2977.509650669889 928.7611534553301
-1429.6129525132976 3174.1646644685416 990.1028647768429
-1643.8288321077875 3685.849554740764 1149.7104243318468
-1388.3941569083443 3176.073936447169 990.6984153721974
-1212.6017176063647 2831.45034430487 883.2015329107115
-1268.3691431905202 3159.8451246288337 985.6362353116842
-1169.3989434182254 3464.374005219951 1080.6265552707257
-1071.2405247603785 3262.9458114747295 1017.7959674608268
-928.5992160822132 2910.68513141792 907.916882617923
-1030.0937758067726 3429.052473615339 1069.6088692566675
-1001.9079512751318 3442.4173774657324 1073.777723424149
-778.1817665069492 2858.1801520056583 891.5392412456745
-900.0289123343342 3424.2792936687692 1068.1199927682812
-850.2529440850601 3355.5455024381727 1046.6801713355196
-777.9531527936249 3189.4388402975633 994.8672695396788
-749.6375089259426 3480.6028170382865 1085.6887353312388
-705.781794950887 3429.052473615339 1069.6088692566675
-648.6487501099224 3474.8750011024035 1083.9020835451754
-559.8000068979264 3343.1352345770924 1042.8090924657154
-533.1715716264056 3378.456766181705 1053.8267784797736
-488.5594020161536 3297.3127070900277 1028.5158781772077
-34.35669788744954 427.67692321260347 133.4033333594062
-27.703397253178743 392.3553916079911 122.38564734534809
-31.905036641384925 524.095158133302 163.47863842480805
-27.534337173228433 538.4146979730098 167.94526788996674
-23.593704256480194 569.9176856203667 177.77185271331584
-18.070193108221474 570.8723216096805 178.06962801099309
-11.418152691916656 521.2312501653605 162.5853125317763
-6.754231598534989 555.598145780659 173.30522324815715
-1.3070184630870674 543.187877919579 169.43414437835295
4.059553388914027 552.7342378127174 172.41189735512543
15.19587162455289 566.0991416631114 176.58075152260687
19.42082272454513 530.777610058499 165.56306550854876
23.973002623830737 517.4127062081051 161.39421134106732
30.832067294280783 549.8703298447759 171.5185714620937
31.28461850446661 475.4087226782958 148.2920982432685
37.063358010224626 490.6828985073174 153.05650300610444
46.237882825994056 486.864354550062 151.86540181539544
51.96284145258634 496.4107144432005 154.8431547921679
520.4536686922561 3400.413393935923 1060.6756103263501
547.6400766210031 3366.046498320625 1049.9556996099693
589.5802921306031 3421.4153857008278 1067.2266668752495
646.3290828284554 3374.6382222244492 1052.6356772890645
645.2465979603667 3208.53156008384 1000.8227754932237
789.363956133271 3584.6581398734957 1118.1462427780586
898.609028131158 3480.6028170382865 1085.6887353312388
872.4465084787245 3260.081903506788 1016.9026415677951
994.9103734302336 3591.340591798693 1120.2306698617995
-1805.3691257642838 3625.7655367738203 1124.0285905364024
-1505.4599937621756 3076.55184245218 953.7660932870791
-1619.1352106982429 3632.451616530779 1126.101351372481
-1569.9245020406345 3593.290292240019 1113.9608950468773
-1303.5339564614915 3323.9367934596667 1030.4582442219917
-1365.7796028258747 3651.5547015506627 1132.023525189849
-1205.9618023098958 3304.8337084397835 1024.5360704046238
-1108.818342326292 3286.6857776708944 1018.9100052781246
-1028.4944416889584 3225.5559056072684 999.9590490625477
-908.5521355157185 3123.3544007508935 968.2754191396301
-910.477865088124 3345.905341232532 1037.2687441119647
-908.5599920721004 3458.613542849843 1072.2095696344345
-806.2284673216232 3183.5291185635256 986.9302666643387
-902.7609618021202 3703.133031104347 1148.013394496742
-822.7532746525769 3660.15108980961 1134.6885034076645
-729.4881737984763 3388.8872825272692 1050.5936352010422
-676.7016987223984 3289.551240423877 1019.7983313507298
-658.627961650075 3530.2501116744047 1094.4177214495637
-595.1658400402831 3363.0981177504273 1042.5987005475956
-491.13854860188815 3113.802858240952 965.3143322309463
-339.8293463474319 3106.1616242329987 962.9454627039992
-24.19834455934591 342.9003761069024 106.30302002175145
-27.197736153311737 447.0121894652655 138.57886732640577
-27.43669767970635 536.7966890587163 166.41308426803428
-23.11945894479215 558.7652368315819 173.22358415800724
-18.070193108221474 571.1822420945059 177.0729971392963
-12.212822659485948 557.8100825805877 172.92747546713883
-6.905099314653468 568.3167793415234 176.18467106669112
3.968406248921139 540.6173060626929 167.59751903150786
13.63272125507949 508.1420615288916 157.52982354198264
19.80504763456311 541.5724603136871 167.89362772237624
30.61795571584828 546.3482315686579 169.3741711767182
30.593592794528593 465.1601202341545 144.20493245290515
37.135465710633625 491.9044392619909 152.49597579722004
46.05655779530389 485.2183595050318 150.42321496114133
51.3632702050565 490.94928501099673 152.19986710635166
56.230743004073005 491.9044392619909 152.49597579722004
555.8717624011828 3418.4970643080883 1059.7730046179622
648.6865076462499 3567.5011274631765 1105.9659603934308
679.4225945659236 3549.353196694288 1100.3398952669313
668.0922823273062 3323.9367934596667 1030.4582442219917
786.438313801025 3425.183144065047 1061.845765454041
877.5506300007983 3530.2501116744047 1094.4177214495637
924.7342494646474 3583.7387497300774 1110.9998081381934
835.658134475522 3124.309555001888 968.5715278304986
904.1995126948348 3265.672384149023 1012.39561407902
1074.7013337760566 3635.317079283762 1126.9896774450863
1045.1397347541167 3427.0934525670355 1062.4379828357776
-1742.9948729276468 3278.9024082668766 1010.2276956516661
-1491.4383235315438 3049.541703520724 939.5618119569998
-1589.9554366759216 3641.1011878451764 1121.8209036528265
-1359.5690997099596 3390.7157518306262 1044.677313952816
-1062.7384170276405 3151.7983510533836 971.0670184375385
-1042.4066662823343 3178.557099940435 979.3113715352496
-1125.9469088031383 3639.1898486389587 1121.2320212887043
-1060.7786405092572 3535.0218619000807 1089.1379324440434
-966.3438309858316 3323.8188796129984 1024.0664312085382
-813.663769254336 2891.8562190077437 890.9790169169167
-1021.7209499461648 3756.737209821362 1157.4482866822207
-820.5001383603197 3241.631293745627 998.7444895512828
-790.0613730705685 3242.586963348736 999.0389307333439
-712.1797004234336 3169.956073512454 976.6614008966995
-658.2715612379267 3530.243513884536 1087.6657265337378
-558.1475727955168 3155.6210294658194 972.2447831657829
-521.115940173398 3115.482906135243 959.8782535192163
-25.454291528099446 418.58328616172895 128.96523774276588
-27.43669767970635 537.0863169472412 165.47594431834344
-20.90631415691461 505.5492200446452 155.75938531032682
-15.108857113897553 477.8348015544851 147.22059103055466
-12.568332908135368 574.3574314684911 176.9591504187267
-6.092734689400118 501.7265416322094 154.5816205820824
4.136677891984933 563.8450658342924 173.72029741605448
8.355365974590132 489.30283679179274 150.75388521528797
14.503985395441713 540.9089953596771 166.65370904658786
19.141386426350238 523.7069425037157 161.3537677694879
22.77877555585393 492.1698456011197 151.6372087614713
29.815037296726384 532.3079689316965 164.0037384080379
34.300003420559776 521.7956032974977 160.76488540536567
43.625158747443386 578.1801098809269 178.13691514697112
41.58959191328513 488.3471671886838 150.45944403322684
45.784570249268626 482.61314957003 148.6927969408602
57.10423027403919 499.8152024259914 153.99273821796018
574.1989118740354 3533.110522693863 1088.549050079921
573.8313845416893 3157.5323686720376 972.8336655299051
643.9522007699632 3365.868342149793 1037.021843219227
880.3706660681559 3413.6518223052417 1051.7439023222823
827.7384150720549 3096.3695140730633 953.9894298779942
1026.4508423760697 3587.583690071074 1105.3321974574044
1004.3911309094675 3399.316778258607 1047.3272845913657
1190.1766998085313 3222.5179016834477 992.8556659100606
1369.795792201766 3535.0218619000807 1089.1379324440434
-2211.794498139444 3918.4340166744137 1199.782837420514
-1808.9058162393244 3459.4666355119643 1059.251904779751
-1828.1491397198304 3613.4119446102027 1106.3883217696737
-1502.6556597160493 3074.125271744324 941.2644759167771
-1471.355221290019 3240.5009474157123 992.2069389990536
-1277.6880245661343 3261.536952385658 998.6479400784219
-1351.846721708896 3618.1928548306446 1107.8521856513482
-1139.4308801121094 3381.0597078967126 1035.2445371202873
-1076.881931853909 3285.441503487869 1005.967259486795
-973.1160545047726 3460.4228175560525 1059.5446775560858
-962.2556115980406 3666.958139079155 1122.7835972444293
-913.6530289191655 3680.344687696393 1126.882416113118
-899.7339067328843 3694.6874183577197 1131.274007758142
-782.1386225419835 3341.8562440890864 1023.2408532905555
-556.9643405091545 3150.619835271399 964.6862980235709
-494.35874639445774 3341.8562440890864 1023.2408532905555
-480.2469943107019 3472.8531841292024 1063.35072364844
-379.8158161152314 3192.6918452112905 977.5683001823074
-23.885191365408385 392.9908201203475 120.3296110736533
-20.699572626682368 405.4211866934972 124.1356571660073
-21.222477698039974 513.4697576754905 157.2189808918536
-16.529089682603924 523.0315781163749 160.14670865520281
-12.798368951379109 585.1834109821233 179.1769391169728
-6.034708644739165 497.2146629259871 152.2418436941599
-1.4103854768637247 587.0957750703002 179.76248466964265
3.9613949304601475 540.2428549099668 165.41661862923144
8.502237642112224 498.17084497007556 152.53461647049483
14.965242881515831 558.410313747647 170.97930137959497
19.944765783660557 545.9799471744974 167.17325528724098
31.79556939722706 567.9721341885314 173.9070291429442
32.16410577166045 489.5652065732796 149.89966148348051
54.5000613201043 356.6559024449869 109.20424557292624
637.571129737452 3510.1442838486514 1074.7688619255018
663.3329314007457 3469.0284559528486 1062.1796325431003
895.4049915525225 3473.809366173291 1063.6434964247749
1055.981127665525 3692.7750542695426 1130.6884622054722
1008.0619447137473 3413.569897395719 1045.1988115156746
982.8041987347798 3226.1582167543856 987.8153473540298
1202.1772952395781 3256.7560421652156 997.1840761967474
-2012.8830423720508 3703.353076650349 1126.8615663267572
-1984.0559037519429 3678.4790957686882 1119.2928758786827
-1799.123220592233 3557.9359576498705 1082.6138375533994
-1597.5066071898805 3453.656576261369 1050.883558367242
-1388.0562170967244 3389.558240912474 1031.3796252895118
-1363.6360826540317 3651.6917317422844 1111.1419784730642
-1150.1947825499008 3157.0821888261826 960.6414799478941
-1112.277781113713 3214.4836831684765 978.1076886742195
-1144.5747069267197 3703.353076650349 1126.8615663267572
-961.3426265701487 3310.1528404056335 1007.2180365514284
-925.7912615805284 3293.889083675317 1002.2692774123029
-950.9644766509971 3625.861059288252 1103.2821845462179
-882.6665698339642 3490.9675475838603 1062.2365940393533
-804.9649857749685 3441.2195858205387 1047.0992131432047
-556.9643405091545 3152.2987309643245 959.1859625540337
-536.3018341355063 3209.700225306619 976.6521712803591
-501.835124353647 3186.739627569701 969.6656877898289
-510.3423052907592 3451.743193116626 1050.3013514096976
-427.89720420788086 3328.3299802806937 1012.7490026480981
-399.9498081644665 3363.7275684584415 1023.5198313626654
-365.74499145633814 3348.4205033004964 1018.862175702312
-310.56693110768424 3119.7712175036913 949.2884442757827
-28.444850707643383 403.7238435408027 122.84566804182161
-27.241418692662172 533.8338973833363 162.43574115482573
-21.1829572553993 512.7866827911618 156.03146462183977
-16.831266824881872 532.8772058109647 162.14463767605366
-10.978992972996785 502.2630754950745 152.8293263553468
-6.6846003449418445 551.0543456860246 167.67560377272335
4.059553388914027 553.9244204031393 168.54891420903962
9.122362460538836 534.7905889557079 162.72684463359784
15.298373288124916 571.1448687058275 173.7887768269372
20.468708842775982 560.6212614097403 170.58663856044424
23.48646567021056 508.0032249293039 154.57594722797933
30.510899926632025 545.3141962517951 165.9289829000908
31.53590058080771 480.2591693305284 146.13394634358875
44.129912650306366 585.4952422914012 178.15532900851855
41.58959191328513 488.86939348187246 148.75387765253754
51.263341663801526 490.78277662661566 149.33608461008174
50.55789848883874 378.8498626591419 115.2769775937473
55.58060575158164 388.4167783828576 118.1880123814682
658.3963302023388 3445.046352110025 1048.263627058293
837.0831620033782 3809.5458411835934 1159.174052470459
899.2713645227262 3367.554334747928 1024.6842452777537
1013.9917208591222 3435.4794363863093 1045.3525922705721
-1812.1262731246088 3526.3181187206687 1066.2722567816922
-1472.0275692569803 3125.252078616445 944.9997064039699
-1580.0985264620658 3517.7033350430124 1063.667357131574
-1551.4406278686292 3488.030191264418 1054.6949250033892
-1493.9997914305122 3572.263631668169 1080.1650549156554
-1312.8195421663813 3279.360986627853 991.5984668116388
-1342.6041258170806 3511.9601459245746 1061.9307573648287
-1272.5666730359806 3584.707208091451 1083.9276877436039
-1041.4707591974936 3093.6645384650383 935.4484076868699
-1093.1265025853997 3538.76169514395 1070.0348896096405
-997.4014900489854 3329.135292320979 1006.6489981234325
-944.7864800443422 3479.415407586762 1052.0900253532711
-837.8022130706278 3196.0847444105084 966.41777019383
-978.4373385330175 4022.1467792791123 1216.1987033107139
-788.6150255216376 3515.7889386702 1063.0884905426587
-672.7410667047955 3131.952465921289 947.0257394651728
-626.0080174592222 3049.6334218903503 922.1344761418217
-592.6303422837923 3355.936841540354 1014.7531303682445
-555.4840159823798 3326.26369776176 1005.7806982400598
-413.71372363315265 3481.3298039595743 1052.6688919421863
-368.7754499569764 3377.952399827698 1021.4100961407686
-312.3764287130341 3139.6100514125387 949.3412058208334
-18.6536489263964 451.7975439837556 136.6125149839736
-15.562122827314479 492.9570659992249 149.05814664564915
-10.665307459482591 488.17107506719356 147.6109801733613
-6.6846003449418445 551.3461553700068 166.71357760756098
-1.419573655866094 591.5484791990698 178.86977597477897
3.680942192020491 502.5290478632875 151.95247959022487
8.322727826251889 488.17107506719356 147.6109801733613
12.966460441861319 484.3422823215685 146.453246995531
17.39490956263215 476.6846968303184 144.13778063987044
24.061463888125317 520.7158134050064 157.4517121849187
