# .PCD v.7 - Point Cloud Data file format
VERSION .7
FIELDS x y z
SIZE 4 4 4
TYPE F F F
WIDTH 28800
HEIGHT 1
VIEWPOINT 0 0 0 1 0 0 0
POINTS 28800
DATA ascii
3587.4877216359496 36.54179157947725 6978.904333594791
3126.393512392871 127.37179773057701 6080.66611689401
2527.054763429947 260.17343661951725 6207.550143404207
3841.6686847397327 324.66111205195944 5630.64784570312
890.2608394158568 86.964869548099 1382.267018873156
4369.338148694863 419.7903739859117 6157.707368973356
816.7460135387153 168.4478533935529 2293.8232976162535
3220.3252670817706 5390.14486879671 4437.8668629629365
4470.672003382191 731.0720720939684 6955.686136205703
6032.637911788528 756.398606350575 6851.372865952554
3506.4933108814553 815.9388313488599 7051.953262997215
5121.4877293403315 831.0354659678626 5839.159533212256
5580.59754157555 1091.3468180836867 7131.983393324652
4623.079456654736 1000.6124802966135 5915.97622242303
1637.839342928895 498.4224617100083 2855.8319365226894
4167.079979149549 1059.6413339822727 5554.834402870734
549.2102834246224 1459.1064866787094 7236.361811057551
4198.148932562606 1080.7249688707132 5084.411228614322
1372.1024406268898 1470.335726069888 6743.56855475219
3964.938430036214 1530.9292681209356 6848.98383528613
1621.8162192439895 1163.3563545330676 5079.480582930457
1901.3333554319079 745.7055510770149 2968.77823878661
3221.1110357901875 -2636.2778920907294 -2757.5829771148615
737.3060976093373 1675.857740330083 6125.9041646254755
1971.5538552899768 1493.0428440559551 5347.478570860599
699.3560806624861 1718.8201380763212 6033.964976111752
5423.898594781173 2689.4934086708136 -5941.641962009849
2005.2108402330302 1724.165035322437 5934.6149774835085
4958.314221501557 2148.223149452283 -5122.808048341975
57.61830429112601 1758.0549837172812 5935.094158834115
2405.6845146320125 1421.639926385436 4536.458521766381
3310.8954042075666 1349.225583291939 4079.681277427261
3139.939506371821 1979.142514194524 5880.902984109479
2660.0576457157335 2183.0968593888615 6164.875351742847
911.8449414485596 533.2528063343323 1367.7227220955858
1630.784734448618 1518.4878596246763 3665.953985004786
3103.522788016801 2020.1895254728554 4602.1201941246345
244.27102853968677 2700.3572211667242 5980.628301281792
3182.687943028137 5184.990930355755 -9.698047667286854
1440.1008917301667 1061.0997394717626 2317.642841960978
1664.077244743172 1102.2717593960915 2374.6412294150555
1447.3452047795545 2701.8876435688603 5664.625244579725
5870.8533377141075 6690.673190457521 -66.13061691068914
820.5789991827401 1112.6061605656093 2271.111739098597
2224.631240779673 -1117.287138471355 2268.812563921156
5591.54557063933 2900.5453028359643 5692.640683039483
3927.4929808313195 2465.1335503784767 4484.06128178445
1769.6569004561725 2327.169365627018 4079.9622233161845
2131.619672796636 2778.771714886758 4642.989204870641
1714.0130494984642 1216.6345646838597 1852.149112792087