# .PCD v.7 - Point Cloud Data file format
VERSION .7
FIELDS x y z
SIZE 4 4 4
TYPE F F F
WIDTH 28800
HEIGHT 1
VIEWPOINT 0 0 0 1 0 0 0
POINTS 28800
DATA ascii
2523.853088268388 128.60740050369506 6139.6531772190265
2342.663613055557 3414.4128359461215 4279.88434256422
2324.15967754061 85.46867545158706 2719.6573507551557
4905.330572106966 469.89627277088493 6398.769685872123
1073.032236310456 404.92739305140776 5145.090359396673
1090.1421535000006 4375.915577709528 -2679.2767413537335
3687.222854387676 375.48950996384895 4207.27746029509
3800.4781197734587 3967.5284218337756 -1655.330547637296
202.8365310543845 586.0124670343886 6199.364353583379
4215.21631634017 472.0396360755633 -6433.706519726685
4387.7572254433035 3866.8743662762377 -4880.861771801753
5285.318146534964 5874.516234655096 1029.249731004925
1310.4991676811508 880.660218908688 6689.278479689098
27.455093565865198 831.1763671998001 5840.149556869973
3378.281409272889 -6247.200857571451 -2354.0300433848615
1049.191518614622 972.6208041685366 6586.575192867576
1657.4153724803068 -3429.227396348031 1370.6379770516003
1043.833676675166 1036.2218964264894 6542.447568102192
4595.484350929465 894.7143261318886 5289.8687388832595
3273.428804330301 922.3996229990322 5285.111534820362
3731.6530507981133 955.9034282451106 5312.687891817967
2853.6038824534166 -3824.117301434348 1152.4594851318977
4890.601117317334 -5764.975361089419 2419.2071192917574
2790.500455622818 728.5385511092973 3819.1328308331417
4612.15781573996 1254.2806119162867 6393.121705909477
1006.499033398521 660.8202582249772 3030.7953718981876
2046.0560905699147 1544.2360058461247 6908.514757764393
3720.8726845566407 1470.3252640481257 6419.7772249433865
5023.891649589684 6569.889632987375 1029.1016521048898
3650.6509204875015 1518.7955372465206 6326.238702107284
4301.624058899974 1646.0783631441734 6411.05194351041
5697.878508586328 4627.548187405284 -4441.3054131912695
799.1319457126957 1515.159052901171 5538.488696784677
3053.3591045662165 1913.3904957724021 6337.455073662285
1356.3033448884385 -1616.225080443403 -2394.6059152490448
3484.2191623333224 -5394.629979919312 -3758.8019873033695
4625.643395424904 -180.37720838628917 -6413.463967521356
2445.167079992617 1505.0723074248842 4802.691573422422
4669.456857696305 6361.7556890556325 -168.99867682409936
1929.3067547600238 2163.195228484863 6778.186439119267
2815.3043408051367 -6102.948959637864 2096.4787134753124
3350.929728905792 2146.2771922667125 6377.533630954502
695.0106946444879 2139.277537034484 6143.168288394814
1175.979331356198 -6543.1486712351925 1364.9400961628824
2256.5749651348356 -2096.774590777409 -6834.598548230191
3929.220955259912 1750.8773936974776 4707.967433217771
1032.924284360417 1225.4972833826846 3243.18445488715
3120.2895298353324 479.58538909541915 3570.939211827358
3001.1030741229474 2032.1449278141615 -2784.2765653503566
891.5473342604745 1333.128772308517 3472.9191865695907
2119.8500558123746 1344.756055210966 3449.120924521702
2142.022486886952 2554.4805885135474 2698.7561807076013
4550.449501680993 2302.987201595345 5816.681695716901
5038.134601239702 2666.8626454170335 6634.029215377278
3146.6236075436623 2368.306051778152 5803.356825589047
2743.7445048925874 2430.0397955183203 5866.635031446671
4626.364349819452 2486.6875182631447 5915.595843743407
4293.95760413315 2650.8760851142347 5790.015542411732
2313.2008603222207 1851.7155071902255 3989.179574853863
4903.012263390202 2499.97793916577 5241.312746219641
2412.105761088729 2296.7145113877723 4750.982156689375
1184.5023025032463 1851.109601898695 3586.4591509953734
265.63265201762914 1764.2313017364334 3374.6632297124656
2116.242045765509 978.9950972551404 -5166.055806855981
4730.373834758 3119.355039808606 5674.085753284016
2985.5170199837753 -2185.161199223852 -3029.0750293458523
2279.8904451262433 1666.7229606066187 2922.0764145700755
4653.205445898231 3584.2096468369814 -4274.052550860918
2012.999906585013 2448.9999999999995 4241.792427736181
2114.8097949061703 1931.8121727726586 3266.515992479966
1263.9840432499307 2708.4165633547887 4525.434312786501
1308.3208371290639 3573.350310655852 5900.302666587175
5614.939130354857 -970.2574654708836 6908.196323983419
1287.801202024331 2755.657430311914 4496.824226803483
1757.9394868114139 6314.057488772394 -1893.9751921493712
2380.4442404124884 2007.7015808423416 3238.091160279952
3729.997651201591 -4601.832226122768 -2414.942890135909
3681.765807697941 3781.6822433435846 5890.575473617143
4194.75515065451 4009.7521710428205 2859.6350338491425
306.7949914424283 2993.3361364425887 4609.333441428051
1813.1408276347731 225.80949548807973 -6469.060138207668
1816.430195076192 5907.4233247986585 2417.651476459078
5087.920079075143 -2807.933889136762 5331.808630684085
4159.768428855547 2689.113762554849 4093.7844559817877
1385.47362725206 3947.3419207527736 5941.227209985139
5530.856002600477 6259.637397823919 -1584.2312481971187
2951.545554904137 2061.1597465837626 3032.904465864818
3432.5603584405444 -3871.5369146673984 -798.3801841025644
2609.9161838446507 2312.6366653640926 3364.90722814369
3313.577793320681 -1728.1639067943618 3510.7005727138353
2295.191529249598 2214.3686426155946 3186.0589314387717
5944.125891421113 4060.11208467759 5776.955154738091