# .PCD v.7 - Point Cloud Data file format
VERSION .7
FIELDS x y z
SIZE 4 4 4
TYPE F F F
WIDTH 850
HEIGHT 1
VIEWPOINT 0 0 0 1 0 0 0
POINTS 850
DATA ascii
-1032.7703537215245 2783.297736374128 1589.1125544449815
-984.2098659712816 2980.429900541656 1701.664364073378
-834.9232927292766 2609.613010235337 1489.9479644640155
-982.2140599965802 3281.7729003924583 1873.7149276903542
-897.1801336021302 3220.9832462438817 1839.0073211970162
-780.9802078628608 2912.6928573475275 1662.9901739808013
-711.4216540946968 2760.718721976085 1576.221157747456
-728.3778156689694 3219.2463989824937 1838.0156752972064
-678.0261208737362 3142.8251194814256 1794.3832557055814
-573.8676588857601 2948.2982262059795 1683.3189149268994
-549.4096583975365 2984.7720186951256 1704.1434788229024
-477.2436081072676 2930.0613299614065 1672.906632978898
-486.19719110144575 3193.193690061675 1823.1409868000615
-450.68291807383855 3440.6944248094524 1964.4505275229383
-400.12502065323395 3325.1940819271563 1898.5060751855958
-235.9844130982452 3040.3511310595386 1735.8761476168113
-199.74063922848813 2984.7720186951256 1704.1434788229024
-8.942395214056157 3380.7731942915693 1930.238743979505
60.266340906565155 3207.088468152778 1831.0741539985388
94.68591172465923 3208.825315414166 1832.0657998983486
173.51676991381547 3406.8259032123883 1945.11343247665
206.296505819719 3346.9046726945053 1910.9016489332166
267.3753531165621 3220.1148226131877 1838.5114982471114
301.5448885297875 3217.5095517211057 1837.0240293973968
318.9507289840139 3055.114332781336 1744.3051377651934
439.36409679298987 3494.5366899124774 1995.1915504170377
463.1946532129805 3396.404819644061 1939.163557077792
485.15155115552324 3300.0097966370317 1884.1272096383557
524.1826094157785 3325.1940819271563 1898.5060751855958
575.0998427772937 3418.1154104114094 1951.5591308254127
700.7846106239869 3699.484666756251 2112.2057665945777
716.5385220946864 3403.3522086896123 1943.1301406770306
701.864707369027 3030.798471121905 1730.4220951678583
873.0972550235122 3319.9835401429928 1895.5311374861667
1209.9134533218053 3399.8785141668363 1941.1468488774112
1181.8957417308181 3228.799058920127 1843.4697277461596
1628.4569317590528 3649.1160961760015 2083.4480355000974
-2022.3508991040742 3257.2209439608746 1852.1664941960892
-1695.5355429664787 2813.0149385261248 1599.5758674188803
-1361.476613070852 2329.6909874072976 1324.7414476769466
-1652.2617131991208 2919.9373233959373 1660.3755681891282
-1505.7425321838045 2752.164800795337 1564.974411695975
-1455.9321483578753 2756.511239204679 1567.4459442476111
-1504.1821455158802 3071.193380041038 1746.3849009860644
-1422.4127672275563 3226.7958750954804 1834.8657663346366
-1472.4211324291402 3539.7394405681025 2012.8161100524353
-1123.3926357962487 2873.8650762569123 1634.1773231417856
-1144.0571462883906 3004.258228537172 1708.3232996908685
-1037.2816750794345 2798.237047934362 1591.1726567433177
-956.679520069987 2899.9437067129643 1649.0065184516022
-954.1433750324017 3191.155080138876 1814.5991994112205
-866.1555074932037 3000.781077809698 1706.3460736495597
-833.2738671520489 3373.7054933312393 1918.4035665799365
-816.2536781228722 3451.072097017526 1962.396845999059
-717.1780488782678 3172.90003881964 1804.218762694349
-691.7028013997884 3209.410121458113 1824.9796361280921
-588.742579057173 3027.7289959476184 1721.6695754697034
-525.7516341197258 2859.0871856651497 1625.774112466223
-460.94191138962196 3030.3368589932234 1723.1524950006851
-448.9292312040141 3172.90003881964 1804.218762694349
-406.09238200999584 3103.3570242701685 1764.6742418681715
-357.1376852664262 3259.8288070064796 1853.6494137270709
-303.46213776146635 3068.585516995433 1744.9019814550827
-141.79934819472518 3119.0042025437997 1773.5717590540614
-114.07187120992653 3281.5609990531893 1866.0070764852512
-77.16663632449169 3207.671546094376 1823.9910231074377
-44.21584603164658 3311.986067918583 1883.307804346704
-8.007498000565056 3030.3368589932234 1723.1524950006851
57.638969965336614 3070.3240923591698 1745.890594475737
94.60903547698022 3209.410121458113 1824.9796361280921
171.12831577786187 3363.2740411488185 1912.47188845601
209.07995633934158 3395.437685377949 1930.7612293381171
223.45258638632075 3092.0562844058795 1758.2482572339177
267.01481461451715 3218.972285958665 1830.4170077416916
281.0548321401931 3183.331491002061 1810.1504408182757
345.9681585568497 3317.2017940097935 1886.2736434086673
506.08967073170896 3445.8563709263162 1959.4310069370956
533.0809822577805 3385.0062331955282 1924.8295512141904
579.0448874304916 3444.9870832444476 1958.9367004267685
516.111166934655 2888.6429668486753 1642.5805338173484
623.3034952240108 3293.731026599347 1872.9273676298324
771.4766979825012 3861.3758828594086 2195.709518873506
783.7154053344121 3387.6140962411337 1926.312470745172
885.201402163519 3369.3590549218975 1915.9320340283004
886.0982010722346 3244.1816287328484 1844.751896541181
1153.4987039092257 3442.3792201988426 1957.4537808957868
1010.7046169548858 2926.8916248508845 1664.330020271746
1292.2017724948294 3533.654426795024 2009.3559644801448
1366.4780044995625 3134.651380817431 1782.4692762399513
-1720.161677243186 2856.69944619223 1617.824858915515
-1819.4052695674134 3166.472520467111 1793.2575880577394
-1433.4343005907558 2716.6054435005003 1538.4858999495088
-1656.8046363764302 3257.8381743965 1845.0003873833957
-1255.938124236936 2673.09798924841 1513.8464716991964
-1166.8127225222834 2710.5143999052075 1535.036379994465
-1391.8590982499627 3390.1008353228535 1919.9042492643455
-1144.2654054710772 3176.9143094876126 1799.1710508378146
-1072.4289491147538 3156.0307314466095 1787.3441252776645
-955.8191967605716 2900.20690044432 1642.4642871658275
-748.476789934017 2595.65472067969 1469.9882894136404
-852.1880859208155 3065.5352266022624 1736.0941145170148
-775.1589481143302 2896.726304104153 1640.4931329058024
-776.9915014208202 3021.1576232651305 1710.961897701696
-647.3970938239944 3332.6709957100948 1887.380203973933
-536.1419826201156 2918.4800312301977 1652.8128470309587
-568.2744188117553 3282.2023487776705 1858.7984672035707
-496.763352600096 3055.9635866668023 1730.673440301946
-510.79133783652026 3361.385915516474 1903.6422266191394
-367.6137240342414 3358.775468261349 1902.1638609241206
-321.17125968182387 3250.8769817161656 1841.0580788633456
-282.5991779358294 3206.4993783790337 1815.925862048027
-246.63438089873728 3183.875502167947 1803.1133593578645
-196.83489818646765 2947.1949510365775 1669.0748696761648
-177.75269795695874 3168.2128186371947 1794.243165187752
-114.58557235179904 3299.6053304785064 1868.6542385036955
201.211355831947 3270.890410672127 1852.3922158584894
222.00771444735946 3075.106866537722 1741.5147887320834
263.55364499488525 3180.39490582778 1801.1422050978395
410.42983097536006 3270.890410672127 1852.3922158584894
462.6024841344673 3398.8023261732715 1924.832134914408
487.32196598964003 3321.3590576045513 1880.9739526288517
647.1564925339823 3423.166500554442 1938.630214734583
612.2141738830069 3067.2755247723458 1737.0796916470272
723.8520053515855 3444.920227680487 1950.9499288597392
677.3073482904414 3069.8859720274713 1738.558057342046
671.6986024677794 2906.297944039613 1645.913807120871
887.2853637210452 3251.7471308012073 1841.550867428352
1054.3405562605553 3355.2948719211818 1900.1927066640956
981.5871985276141 2845.387508086687 1611.4186075704338
-1981.540279062811 3152.1773642388825 1777.9029400898157
-1724.9622293932803 2783.741048938234 1570.0961029364607
-1892.2062416276658 3193.9857404432114 1801.4838577809767
-1469.9384291779083 2739.3196492211346 1545.0413778896022
-1444.453654599141 2740.190657058725 1545.5326470081682
-1636.7687176935297 3283.699547715001 1852.0845769932594
-1191.353472807516 3053.7534785911917 1722.3895296918745
-1197.2319498492236 3327.24993959451 1876.6480329215517
-1146.663184174986 3279.3445085270496 1849.62823140043
-994.9609632674791 2930.9413734909754 1653.1205839740894
-892.5014890363052 3098.174878308291 1747.444254738733
-844.4475185777936 3040.688361027339 1715.0204929133868
-775.1589481143302 2899.5850913377285 1635.4348957057189
-762.4452895566632 2967.523702669763 1673.7538869538553
-833.2738671520489 3380.381417687511 1906.6154491540688
-756.2168836614418 3203.5668266567036 1806.887818085201
-697.136360937012 3090.3358077699795 1743.0228326716403
-670.5320493526118 3117.337050735275 1758.2521753471817
-621.2059183745025 3036.3333218393877 1712.5641473205576
-573.3605593344619 2954.4585851059105 1666.3848501753675
-533.7442098892565 2908.2951697136305 1640.3475868913774
-571.1646975510215 3517.1296481891704 1983.7447007689075
-418.60503243607417 3205.308842331884 1807.8703563223326
-375.67235551015307 3131.273176136718 1766.1124812442354
-343.1378880039823 3138.2412388374396 1770.042634192762
-246.86207700825912 2803.7742292028083 1581.3952926634752
-225.19963557875957 2910.037185388811 1641.330125128509
-76.30922925421956 3178.307599366588 1792.6410136467912
-44.12300436018905 3311.5717985178867 1867.8051887873664
-8.806869573771205 3339.4440493207726 1883.5258005814737
24.904203173441495 3093.81983912034 1744.9879091459036
177.07027536368201 2881.293926748335 1625.118244215836
247.5756657150661 3432.6418879429225 1936.0915962680199
286.98864762780937 3466.6111936089396 1955.251091892088
298.6148977100649 3195.727756118392 1802.4663960181083
340.3470826054543 3269.763422313558 1844.2242710962057
374.53217262364154 3264.5373752880164 1841.2766563848106
400.6030991882405 3195.727756118392 1802.4663960181083
560.7343870898483 3567.6481027694012 2012.2383096457268
617.3264318430046 3680.008113818535 2075.6120259407217
577.6158380469401 3239.278147997901 1827.0298519464009
605.3726213841013 3205.308842331884 1807.8703563223326
750.8942879648587 3111.239995872144 1754.8132915172207
780.7363070640404 3100.7879018210615 1748.9180620944305
943.0755958671485 3106.013948846603 1751.8656768058256
1111.844584045837 3324.6369160817394 1875.1742255658542
1330.634862157334 3547.614922504827 2000.939119918712
-1943.36876664483 3233.743341953368 1816.4759834284243
-1877.7579801699142 3172.712866370533 1782.1936111340083
-1447.208493101237 2748.1151291013794 1543.6862495999983
-1512.1659001927223 3036.7020922145 1705.7928957350234
-1618.7948169060348 3282.567722419636 1843.9018812639574
-1313.4452077318115 2689.700245329237 1510.8731218324856
-1540.07777148455 3284.3114502934313 1844.8813776152265
-1476.385645979563 3215.4341992785176 1806.1912717400996
-1368.0757296363988 3044.548867646579 1710.2006293157342
-1254.957384878838 2855.35439333979 1603.9252752030438
-1169.434773584131 2721.95921099445 1528.9938043309628
-1268.6996995398904 3173.5847303074306 1782.6833593096426
-1144.5788169762734 3184.047097550202 1788.560337417257
-971.0109371085888 2863.2011687718687 1608.3330087837546
-937.084678073814 3038.4458200882955 1706.7723920862925
-908.1386413411091 3046.292595520374 1711.1801256670033
-739.22418125859 2664.4161911592055 1496.6704247390846
-759.0953601082227 3218.921655026108 1808.1502644426375
-662.1616506081541 2938.1814673450663 1650.451351888323
-592.0316501688329 2755.0900405965604 1547.6042350050743
-543.5106285261712 2659.1850075378197 1493.7319356852774
-595.2870433146425 3246.8213010068325 1823.822206062942
-536.1846915564785 3102.963751418721 1743.013757083247
-479.4536347386027 3161.3786351908634 1775.8268848507594
-381.99446816096946 3497.046250896457 1964.3799324700485
-286.8937651717606 3261.6429879340926 1832.147925048729
-240.43313382503302 3109.938662913902 1746.931742488323
-174.67705391101302 3119.5291662197765 1752.3189724203025
-148.28070078779513 3271.233491239967 1837.5351549807087
-72.0012815352913 3001.8275347385943 1686.2029687096428
-44.90055335864582 3373.2415718569914 1894.835691529947
-8.756334589258174 3323.5453274538254 1866.9200455187797
25.864753802597317 3216.306063215415 1806.681019915734
61.27812350505067 3273.84908305066 1839.004399507612
90.53459434999218 3080.2952890593824 1730.2803045167493
238.34104940953077 3307.851776589668 1858.1045783573584
295.3531408752531 3571.154685532757 2006.0085273989826
303.98654754622305 3256.411804312707 1829.209435994922
375.23167241242635 3273.84908305066 1839.004399507612
399.9479837357659 3193.6376008560765 1793.9475673492366
568.5375755820654 3620.850929935923 2033.92417341015
585.3815793489963 3286.0551781672266 1845.8608739664953
756.3599238794965 3136.9664449577294 1762.113935932993
957.0210796032052 3385.4476669735586 1901.6921659888303
954.447672382286 3315.6985520217468 1862.512311938069
936.0597385259288 3194.509464792974 1794.437315524871
1161.3947618053023 3373.2415718569914 1894.835691529947
1048.5916595455644 2958.234337893712 1661.715559927917
1340.7624537917256 3578.129597027938 2009.9265128040588
-1504.0578267391124 2808.4045299867325 1571.1104340402042
-1679.4188960129409 3250.872241827402 1818.640884648776
-1566.5300247789964 3089.4195264614773 1728.3191225923938
-1411.8758275701216 2838.0769209188484 1587.7101092289447
-1328.77228308946 2723.7509440921667 1523.7525371782092
-1573.1933274947037 3358.216479611233 1878.692650772749
-1299.7900940044346 3099.8921350257533 1734.1778314825374
-1184.0035382793978 2964.620941070519 1658.5028416515145
-1198.4002950047893 3245.635937545264 1815.711530203704
-1162.443272772453 3236.9087637417 1810.829272795251
-973.3763717909484 2872.9856161331027 1607.239138862757
-898.5218326033812 3016.9839838919 1687.796386102233
-775.8264279168557 2698.4421400618326 1509.5939906936953
-777.2013397852911 2804.040943084951 1568.6693053359777
-765.4691293832376 3249.1268070666893 1817.6644331670852
-737.2197368195234 3274.4356110970234 1831.822979651599
-665.848254651909 3101.637569786466 1735.154282964228
-634.0363332118417 3105.1284393078913 1737.1071859276092
-569.3037629240765 2939.312137040185 1644.3442951670006
-621.3053295810389 3599.0864765895853 2013.4429552460542
-502.9899687108783 3319.8169148755533 1857.2107181755553
-414.39623183821146 3179.309416638181 1778.6063738994606
-333.89992654509075 3059.7471355293615 1711.7194474036532
-259.7783285006104 3363.452783893371 1881.6220052178207
-227.86821251524643 3421.9248483772462 1914.3331298544565
-180.58424326909926 3228.1815899381368 1805.9470153867978
-149.26871185381188 3296.2535456059322 1844.0286231727318
-108.45137636355663 3132.182678098938 1752.242183893814
26.502783782547535 3298.8716977470012 1845.4933003952679
55.84387180673327 2986.438875579428 1670.7084851726472
169.7129355491486 3348.616588427313 1873.3221676234505
199.71257478291946 3256.10854610954 1821.5702390938477
221.06540666108035 3071.092461473994 1718.0663820346422
259.5156137719814 3140.909851902502 1757.1244413022669
460.1153740047121 3390.5070226844177 1896.7570031840253
484.8962082338624 3314.5806105934153 1854.2813637304835
527.8788565963025 3365.1982186540836 1882.5984566995114
533.3115920063826 3185.4184383006755 1782.0239540853777
536.6127239720834 3015.2385491311875 1686.8199346205424
662.5248466412453 3011.747679609762 1684.8670316571613
641.5324975665318 2783.9684433367547 1557.4401132965356
776.5883722232537 3295.380828225576 1843.5403974318865
834.9577725257548 3190.654742582814 1784.9533085304495
1112.56493845641 2820.6225733117217 1577.9455944120386
-2225.742258742837 3551.054592215082 1978.442893567611
-1698.991353792725 3017.3044431761114 1681.0680822589245
-1379.7091237729683 2534.2212477284015 1411.9219764427157
-1546.7573548426813 3173.673144776726 1768.1877078305365
-1405.5522710642986 3204.248030564556 1785.22227148979
-1311.400109647035 3058.3621469483396 1703.943067744208
-1257.341994087623 3001.580216199513 1672.3074495198798
-1155.7146259852746 2825.993014960834 1574.4803839338797
-1055.042305084409 2644.2908365645885 1473.246405616029
-1264.0715684095721 3249.6735751636174 1810.5307660692529
-1155.6433731749917 3049.6264652946743 1699.07604955585
-1091.6481059089251 3225.2136665333537 1796.9031151418499
-1046.7266931221382 3188.523803587958 1776.4616387507454
-889.6586966120278 2797.1652655037374 1558.4192239122976
-948.2044214417198 3301.2140969202446 1839.2461733805662
-856.7840477807348 3094.178441728369 1723.8978423164767
-766.0777829066225 2874.039264055995 1601.2489839698499
-730.6674113303508 2852.200059921831 1589.0814384989544
-823.8268044994618 3351.8810505115052 1867.4748788730437
-779.2446952356892 3310.8233467392765 1844.5998933877602
-669.6281618019552 2977.1203075692492 1658.6797985924768
-592.2922759162601 3060.9828514444393 1705.4031732007156
-517.5033479900263 3000.7066480341464 1671.820747701044
-510.05941044303705 3150.086804311829 1755.0467587219691
-415.4199941457997 3190.270939918691 1777.435042388417
-379.5388025626915 3172.7995766113595 1767.7010060117007
-305.95516948811866 3109.0291005396007 1732.1717732366856
-270.71237397923414 3083.6956237439704 1718.057420490447
-194.56842017369166 2924.7062176472555 1629.4776894623276
-168.28166708531634 3011.1894660185453 1677.6611695270738
-121.41477576728073 3509.996888442853 1955.5679080823274
-44.33189812096848 3337.030391700274 1859.200947952835
-8.657561664982701 3292.478415266579 1834.379155192208
24.118935505810455 3005.0744888609793 1674.254256795223
179.84175031087784 3551.9281603804484 1978.9295953864466
213.52277159181605 3484.663411647223 1941.4535553360886
242.8641267836705 3377.2145273071355 1881.5892316192826
278.04729277709373 3368.4788456534698 1876.7222134309245
301.0565567265004 3231.3286436909193 1800.3100278737006
365.6385324519489 3196.385917076257 1780.8419551202678
444.71420632153274 3558.0431375380144 1982.3365081182974
531.3686199761283 3635.7907042556385 2025.6529699946855
559.7580024593018 3346.6396415193058 1864.5546679600288
649.2159728518983 3651.5149312322364 2034.4136027337304
602.0825527896226 3197.2594852416237 1781.3286569391037
751.1045047308062 3121.2590548547323 1738.985598700387
777.2273798412806 3095.925578059102 1724.8712459541484
951.8453282069479 3373.7202546456692 1879.6424243439394
862.4829905195238 2949.166126277519 1643.1053403897306
1017.3085675260196 2960.5225124272847 1649.4324640345963
1325.4077180879706 3544.066046892149 1974.5492790169244
1112.56493845641 2823.3723104647343 1573.0202784773724
-1949.9992874586717 3304.419157403186 1833.4816694439066
-1578.4780701565878 2806.001872481298 1556.931113322439
-1539.1120023156923 2879.452840785576 1597.685932119287
-1341.147210770531 2554.169981152344 1417.2003060189604
-1496.1021223267646 3013.2385330540833 1671.9179234992598
-1318.1284807577597 2707.192831786257 1502.1061785123936
-1275.3028384466186 2672.216180212791 1482.699121942466
-1574.8286635939705 3368.2515465247616 1868.8995476840246
-1475.9853244920414 3223.9728587842146 1788.8454393330733
-1370.4263752199665 3058.708180099589 1697.1470970401656
-1258.9404710818912 3158.3916370839665 1752.4572082644593
-1057.8104280803757 2722.05790870498 1510.3541775546128
-1160.939934037438 3066.5779267036187 1701.5136847683993
-1075.627906621669 2918.801573805725 1619.5188707604552
-1175.9008111818384 3376.1212931287914 1873.2661354122583
-928.288850859277 2830.485528582724 1570.5160529213883
-977.6871992758644 3179.377628028046 1764.1014422064156
-937.7688088032975 3154.89397192662 1750.5165026074665
-836.223165775833 3022.857112236786 1677.2548640559899
-747.682602101266 2807.750705059971 1557.9014661509352
-743.8708959455088 2906.559745755012 1612.7264009609808
-642.3114585531116 2731.676487887683 1515.6911181113428
-738.9881210496343 3288.679664195127 1824.7484939874394
-631.3755256547364 2946.782895064498 1635.0445160163974
-613.8997099254622 3012.3641167647465 1671.4327470850117
-559.3308050818792 2893.4435014149626 1605.448754747258
-533.104803827694 2916.1783249377154 1618.0633415177108
-584.8465784271564 3394.484035204861 1883.4548401114703
-574.4179882998262 3551.0045509961205 1970.301418261896
-493.20520065498846 3261.572759225691 1809.7080251457455
-464.18052563395867 3300.0470759565032 1831.0557873726657
-419.1737892736232 3222.2240262055416 1787.875086504577
-371.492412750652 3108.5499085917777 1724.8021526523123
-313.3287958737446 2876.829591917566 1596.2304028765423
-310.42543327384 3157.51722079463 1751.972031850211
-268.64176941905305 3063.080261546272 1699.5729791114065
-30.212672003461147 598.1007419062661 331.8606673457614
-148.8339869847645 3293.0517456418097 1827.1743760586803
-107.21245008021704 3102.428994566421 1721.405917752575
-42.707168870461786 3217.8519447588583 1785.449204433336
-8.025874358569794 3055.2105149422423 1695.2063913831728
59.858364052337116 3207.3589492868186 1779.6270874623578
88.17705608783557 3008.8664516074 1669.4920414280189
119.5288765528659 2992.2525421100036 1660.2736895573032
200.30138162360885 3272.0657546977304 1815.5301421167237
263.1931064928403 3191.619456078759 1770.8939120058903
358.84223573585194 3460.939673194446 1920.3282475943327
382.7263130065494 3349.0143881593553 1858.2256665705645
460.3522416361174 3398.856116651544 1885.8807221827112
478.25729227068155 3275.563419855077 1817.4708477737165
514.4628483114379 3286.0564153271166 1823.2929647446947
598.1895331730437 3470.558252377149 1925.6651881510627
667.2324926726686 3756.4923789902323 2084.3178756102207
620.34243348898 3297.423827088493 1829.6002581299213
638.6131964164018 3215.2286958908485 1783.9936751905914
806.6146453318934 3216.1031121801852 1784.4788516048397
954.4475113529274 3155.7683882159563 1751.0016790217146
1121.7483607965728 3367.377130235425 1868.4143712697764
1068.639274238014 3112.9219900384605 1727.2280347235533
1073.0062605193634 3035.973356576836 1684.5325102697127
-1542.8374902597677 2658.1699337874775 1468.8436278611407
-1683.2508432769846 2995.1457074154587 1655.048697576827
-1378.757928237792 2537.3838123312144 1402.0999924825312
-1518.0143417115628 2947.00631118289 1628.447973331729
-1553.0532519942333 3101.05237912711 1713.5702909160427
-1303.6529095866474 2680.051477529554 1480.934866154367
-1553.6493676494636 3258.599494070062 1800.6272066272727
-1529.624336479505 3241.0942590764007 1790.9542159926916
-1258.4061227304135 2874.3595859591956 1588.3050621982175
-1282.5575479667089 2996.896230914825 1656.015996640285
-1201.7203459207667 2874.3595859591956 1588.3050621982175
-1132.8504108189506 2775.4550082450087 1533.652665112834
-1229.0717373487694 3165.821748603657 1749.3603562639928
-1089.1618706953986 2958.38471392877 1634.7354172442067
-1204.2247623447265 3460.784958246851 1912.3502484566843
-1100.2228066324783 3256.848970570696 1799.6599075638144
-971.8785652029934 2966.2620696759177 1639.088263029768
-994.9618340311279 3134.3123256150666 1731.9489731217468
-932.7824241716099 3036.283009650563 1677.7802255680926
-950.9644766509971 3317.242031298828 1833.0317252531192
-861.3800096406541 3116.807090621405 1722.2759824871657
-841.9870100274611 3164.946486853974 1748.8767067322638
-834.2811973781157 3262.9758028184774 1803.045454285918
-775.088549450888 3159.6949163558756 1745.9748095418893
-587.160503680102 2743.0703235067353 1515.757632438859
-524.1322118361868 3045.035627147394 1682.616720885383
-494.924536089902 3062.540862141055 1692.2897115199642
-313.77813111313094 3194.7053863431984 1765.3207908110517
-240.97237270100732 3129.0607551169683 1729.0470759313725
-202.76260991218945 3053.7882446442245 1687.4532162026737
-171.4061308780231 3073.044003137252 1698.093505900713
-140.37661225966104 3108.9297348742575 1717.923136701604
-104.8856860846768 3038.033533149929 1678.7475246315507
-41.51183235044614 3130.811278616334 1730.0143749948306
23.740324308916918 2963.6362844268683 1637.637314434581
63.85653722377185 3424.899226509845 1892.520617655793
96.8896974914578 3309.36467555168 1828.6788794675579
135.3170274008774 3390.7640182722057 1873.65828591836
170.37639503135796 3371.508259779178 1863.0179962203208
194.57389690053932 3181.5764600979523 1758.0660478351158
223.76668898174714 3117.682352371088 1722.7596320188948
343.0669580658069 3311.9904608007296 1830.129828062745
682.9192901028222 3848.52591335645 2126.6069910126557
653.2768919225094 3127.310231617602 1728.0797768679142
750.684071198911 3125.559708118236 1727.1124778044561
770.2095253957611 3073.919264886935 1698.577155432442
952.8985577199262 3050.287197645492 1685.5186180757576
1105.4362579130081 3321.6183400472432 1835.4499729117647
1187.6539439260005 3225.3395475821058 1782.2485244215686
-1839.923729662607 2986.640389917856 1643.551088743918
-1529.3826689833136 3056.7287534242882 1682.120782818284
-1390.0805845200534 2860.4813356062773 1574.1256394100592
-1308.0289011389448 3059.357067055779 1683.5671463460726
-1166.5908839206468 2793.021285731336 1537.002308863482
-1154.2856125373794 2830.6937811160433 1557.7335194284537
-1052.2539540964092 2644.959617823997 1455.523830131384
-1159.2847587679234 3068.1181124940836 1688.3883581053683
-1056.2936722306263 2871.8706946760726 1580.3932146971438
-1017.9605688770362 2845.58755836116 1565.9295794192565
-1106.1363933383773 3277.507098469551 1803.6153191525366
-1018.336023911428 3111.0472351417734 1712.0122957259175
-950.7845283592627 2998.029748987651 1649.8186640310023
-760.4893735480332 2861.357440150108 1574.607760585989
-752.1510473143367 2944.587371813996 1620.4092722992984
-647.9359492856257 3185.5161213673578 1752.9925956799311
-598.208437348072 3100.5339806158086 1706.2268416147626
-531.2130436718581 3089.1446215460132 1699.959266327678
-520.1794261063606 3446.595275428819 1896.6647061069443
-466.76340614225575 3324.8167438363926 1829.6498626527334
-423.9513467090349 3265.241634855925 1796.8656226895225
-377.34433261395344 3163.6135077715976 1740.939566281692
-343.6140715843375 3160.9851941401066 1739.4932027539032
-304.2358372628412 3100.5339806158086 1706.2268416147626
-276.847498601993 3162.7374032277676 1740.4574451057622
-231.33347779296702 3006.790794425955 1654.6398757902982
-197.2417019323505 2973.4988217603996 1636.3192711049744
-171.4061308780231 3076.003053388557 1692.7274486887345
-138.7167536687529 3075.126948844727 1692.2453275128048
-8.708096649495733 3321.312325661071 1827.7213779490153
25.093508771888263 3135.578162369025 1725.5116886519454
57.13307866609385 3067.242007950253 1687.9062369294388
87.51079527461741 2991.8970171808382 1646.4438157994953
138.3558971437469 3470.2500981122403 1909.6819778570427
205.22594792755646 3358.9848210457785 1848.452588513987
243.80643456994963 3400.1617346058074 1871.112283782677
319.40404156073936 3086.516307914522 1698.5129027998894
406.608324169258 3262.6133212244335 1795.4192591617336
422.4534206112762 3125.0649078430597 1719.7262345407905
514.388315685685 3529.825207092708 1942.4662178202539
535.6820450885195 3428.1970800083805 1886.5401614124232
531.5582388271836 3187.2683304550187 1753.9568380317903
570.6266708750895 3218.8080940329132 1771.313200365255
633.5765408014778 3196.029375893323 1758.778049791086
780.0954727462624 3398.409525518147 1870.1480414308178
746.7435745935554 2983.135971742534 1641.6226040401996
920.2978911249983 3271.374366662738 1800.2404709210296
945.1913010738051 3131.1976396498726 1723.1010827722976
1035.611745103798 2935.826326375692 1615.5880605400025
-1869.9982883260473 3228.0333273670462 1769.05676489129
-1608.3665454738687 3071.9371762474225 1683.511504323333
-1527.1727585523527 3145.6005284611774 1723.8811778497845
-1279.0586386907348 2687.8354111328435 1473.0124923639783
-1248.4431022703066 2857.085732290637 1565.7666232045158
-1160.8194629523455 2717.65152988603 1489.352598315161
-1186.0948015203976 2984.242709326286 1635.4523691727954
-1105.0432098032065 2851.8240642753694 1562.8830750954835
-990.23009390276 2936.887697188872 1609.500436191505
-958.0581658470586 3124.553856400105 1712.3469854136556
-854.5964089094352 2883.3940723669784 1580.184363749677
-941.4297404734937 3290.2963988810534 1803.1787508481716
-796.0689726839068 2886.024906374613 1581.6261378041931
-775.8574992841538 2921.9796378122787 1601.3303832159136
-752.5986230640029 2949.1649225578312 1616.2287151125804
-738.5951467762762 3296.435011565533 1806.5428903087093
-685.8948959709169 3210.494433982819 1759.4449378611823
-644.0155447519943 3169.2780345298847 1736.8571443404298
-581.1360857877004 3014.9357727486836 1652.2730664754836
-521.59549471957 2861.470455636694 1568.1695799620427
-527.4518888506029 3498.1322854841474 1917.078901154946
-465.65645735298557 3320.11251763424 1819.5188567993544
-421.56256799132905 3249.9569440973305 1781.0715486789243
-376.1948483550907 3157.000809160925 1730.1288654193545
-342.2807575593429 3151.739141145657 1727.2453173103222
-177.7038782101977 3192.0785959293803 1749.3525194795695
-147.29268972177834 3268.372782150769 1791.1639670605373
-112.59120321276457 3267.495837481558 1790.683375709032
-76.7065642380042 3216.6330466672985 1762.80907732172
-42.800010541919306 3234.171940051526 1772.4209043518276
-7.982230508308539 3047.3827255095043 1670.0549464811825
24.020777047356574 3004.412436718147 1646.505970257419
86.10139740050204 2946.534088550197 1614.7869410580643
175.41868709614891 3477.962558092286 1906.0253000703221
202.97777635401516 3325.374185649508 1822.4024049083866
223.32694534815022 3117.5382990464136 1708.5022546016125
255.91022875153155 3112.2766310311454 1705.6187064925803
297.9637886390154 3210.494433982819 1759.4449378611823
434.55991680817584 3490.239783461245 1912.7535789913975
462.1287488716568 3421.8380992627585 1875.2674535739782
504.81295612340494 3467.4392220617497 1900.2582038522576
523.0836984610547 3139.461915776698 1720.5170383892469
727.6915840614575 3490.239783461245 1912.7535789913975
763.5066111539358 3487.6089494536113 1911.3118049368813
750.3315825770314 3271.8805608276148 1793.0863324665588
742.065183795059 3095.61468231613 1696.4874708139782
869.5262345712356 3093.8607929777068 1695.5262881109675
933.5549224371941 3095.61468231613 1696.4874708139782
1090.852562522737 3186.816927914112 1746.4689713705372
1297.9652117238124 3484.1011707767657 1909.3894395308598
-1348.4934467761211 2578.0460960345386 1406.9994053733908
-1488.2873114730555 3009.0371185585286 1642.2178963636309
-1481.2056719109437 3180.204632595551 1735.6346086713638
-1305.8486922953728 2863.325286096243 1562.693925886279
-1311.7746883701561 3073.9929956802703 1677.6683410342578
-1287.7143414418933 3088.9152917758056 1685.8123621072396
-1089.9800073820936 2678.1132580869516 1461.6122525686808
-1052.2539540964092 2650.0242301424146 1446.2823305489503
-1115.5853243631568 3038.8817107495993 1658.5059385095947
-1011.3789272679173 2832.6029117819053 1545.9268236771986
-973.9677304615383 2891.4143140407796 1578.0238479060095
-951.2308057770225 2911.6033028759157 1589.0422293576908
-994.4061446516075 3141.5822191718125 1714.5559658942343
-932.7824241716099 3045.0261856124666 1661.8593589514107
-875.3895088829007 2956.3701911625217 1613.4742925766361
-810.2016609778548 2834.358476028439 1546.8849438034317
-781.7444345015742 3196.004710814353 1744.2576898074622
-668.423352034624 2853.669682740308 1557.4242651919965
-645.8532182637989 2885.269839177912 1574.6704274641934
-566.6172028502151 3301.338565606367 1801.7448973814514
-515.4344125497579 3198.6380571841532 1745.6948699968118
-470.85890604086165 3125.7821409530106 1705.932884758136
-416.67125918840753 3215.315917526222 1754.797011196027
-362.6100343867124 3045.903967735733 1662.3384190145273
-310.37645767554216 2860.6919397264423 1561.256745696929
-290.4214618298469 3324.1609008113032 1814.2004590224826
-218.97664492666374 3307.4830404692343 1805.0983178232675
-148.20165990251377 3291.6829622504324 1796.4752366871692
-108.57224722046782 3153.8711688975477 1721.2628067778664
24.020777047356574 3007.281554311995 1641.2597762373978
198.26732162850004 3251.30498458016 1774.4384737838066
228.7295099894838 3196.004710814353 1744.2576898074622
254.1796439417156 3094.1819845154064 1688.686722485939
285.91827082460014 3083.648599036205 1682.93800172854
466.1554986055462 3454.9504371780536 1885.5804084268527
516.6532170110077 3312.749733208835 1807.972678201967
548.6534323243744 3296.071872866766 1798.8705370027521
573.7329673959119 3242.5271633474927 1769.6478731526408
563.9177570936683 3009.0371185585286 1642.2178963636309
727.6915840614575 3493.572850601792 1906.6590512039822
726.1986986560333 3169.6712471163496 1729.8858879139648
933.5549224371941 3098.57089513174 1691.0820228015218
862.3588737131048 2680.7466044567523 1463.0494327580307
1042.8238310963093 3049.4150962288004 1664.2546592669935
-1947.6928182178362 3217.4951004178633 1748.7050290964003
-1791.406727359176 3148.0843650456595 1710.9803711776085
-1778.1406189097838 3433.6348586654863 1866.1767486916253
-1585.926547423338 3272.8479653349377 1778.789249968348
-1404.7858848750595 3221.009568031646 1750.6151383581112
-1305.7814288002182 3062.858525411434 1664.6602215811172
-1175.0073175248422 2821.2388769638883 1533.3402098384875
-1015.3083035054124 2559.4110397370932 1391.0370698410195
-1149.3537071508367 3050.5578887631955 1657.9748391651287
-1033.0043211264503 2895.9213137567663 1573.9300316498457
-1137.774082214936 3380.9178444587487 1837.5251097659607
-1076.5512345152072 3298.3278555348606 1792.6375421157527
-1019.4121667300218 3223.6454187419827 1752.0477203043945
-930.6312972205079 3040.8931028252937 1652.7220386954236
-931.0110513119212 3147.205748142214 1710.5028438621807
-725.3926918200614 2540.0814678612896 1380.5314689016093
-820.7976245428098 3097.1245846458132 1683.2837868827992
-766.4734713036605 3009.2628943012514 1635.5310553400247
-668.423352034624 2856.3835531017135 1552.4413024555972
-733.0935069492649 3278.1196667556114 1781.6544138609145
-641.8672257843107 3010.141511204697 1636.0085826554525
-569.3290107872807 3320.293278121001 1804.5757250014462
-519.5363878417292 3227.159886355765 1753.9578295661054
-492.676294273589 3273.7265822383833 1779.2667772837758
-471.806172848931 3370.3744416174013 1831.7947819808278
-419.1737892736232 3237.7032891971126 1759.6881573512383
-367.10347285317596 3086.581181804466 1677.5534590976663
-301.14103925734184 3077.7950127700096 1672.7781859433887
-265.42082899210465 3040.8931028252937 1652.7220386954236
-252.16157937747366 3286.9058357900676 1786.429687015192
-198.75268727420118 3004.8698097840233 1633.143418762886
-182.3417541524968 3281.634134369394 1783.5645231226256
-43.241008481342554 3273.7265822383833 1779.2667772837758
55.63172384253469 2995.2050238461215 1627.8906182931808
121.51986017750451 3056.708207087315 1661.317530373123
248.32951194408938 3473.172619320539 1887.6654778858738
288.6854843765604 3116.4541565216173 1693.7893878222096
346.69345867961033 3359.831038776054 1826.064454195695
512.9569698304838 3292.1775372107413 1789.2948509077585
559.1735513995689 3362.4668894863908 1827.497036141978
573.7329673959119 3245.610841328123 1763.985903190088
563.9177570936683 3011.8987450115883 1636.963637286308
679.0569204030787 3263.183179397036 1773.536449498643
783.3131906023955 3422.2128389206932 1859.9688935910647
759.9336089006058 3176.2001059559193 1726.2612452712963
940.4309643588279 3124.361708652628 1698.0871336610594
862.3588737131048 2683.296023122926 1458.3684213163315
1126.4089616204485 3397.611565624216 1846.5981287590878
1066.5380172381078 3121.725857942291 1696.654551714776
1269.8693123509838 3415.1839036931283 1856.1486750676427
-1656.5070245092204 3063.1208920950025 1657.8840129548014
-1534.9041854179682 2939.998031086303 1591.244977119696
-1793.6106242943624 3466.787986402096 1876.3648518713255
-1716.5451881688493 3411.3826989481813 1846.377285745528
-1549.93748598565 3139.6329557218373 1699.2954137951883
-1438.6163231526066 2971.658195345683 1608.3807291915803
-1294.0818396672003 2727.171371342694 1476.054643747585
-1165.68898635292 2736.845310421949 1481.290567991772
-1330.0542666284937 3274.1886538242015 1772.1223601006964
-1233.1482244428935 3111.4905874912774 1684.0636341757356
-1163.71846659565 3360.3746565302913 1818.7696851852702
-1020.6850654381391 3035.8579728716477 1643.1282264484566
-942.4472562973273 3188.882100125317 1725.9510281292305
-843.7218403893854 3067.5181371310273 1660.2639785203407
-812.647860894867 3069.2770351454374 1661.2159647465567
-736.6302754094866 3297.0543280115317 1784.4981810415018
-649.5486490934633 3049.0497079797224 1650.268123145075
-651.8563538192572 3217.0244683558767 1741.1828077486832
-548.7702523359741 3019.148441734753 1634.0843572994065
-432.0790107451237 3089.5043623111524 1672.1638063480382
-386.07214132827056 2984.8499304537577 1615.5206258881985
-380.5837882525667 3202.953284240597 1733.5669179389567
-339.6141295093536 3136.115159693017 1697.3914413427567
-303.2902045389386 3102.6960974192275 1679.3037030446567
-264.73062747204426 3035.8579728716477 1643.1282264484566
-229.44614172705704 2993.6444205258076 1620.2805570192777
-205.49400649168868 3109.7316894768674 1683.11164794952
-172.5289850535271 3107.9727914624573 1682.159661723304
-117.244731203845 3412.262147955386 1846.853278858636
-46.52528260915253 3525.7110698848305 1908.2563904495546
89.38145063480688 3067.5181371310273 1660.2639785203407
121.3452124911327 3055.2058510301576 1653.6000749368302
248.32951194408938 3476.461925481351 1881.6007761155124
285.25806281799345 3479.1002725029657 1883.028755454836
302.8471066718864 3272.4297558097915 1771.1703738744807
339.44045745200344 3292.6570829755065 1782.1182154759622
372.833387422307 3281.2242458818414 1775.9303050055596
536.0877345401144 3226.6984074351317 1746.4187319928699
730.6169773642172 3514.2782327911655 1902.068479979152
746.4203430139559 3419.297740013026 1850.6612237634993
725.3942691920001 3172.172568988422 1716.9071589801804
758.0416580070773 3171.293119981217 1716.4311658670727
895.9352684952231 3450.078455265201 1867.3209827222756
906.0425335722528 3355.977411494266 1816.3897196197306
841.6131307494786 2706.944044176979 1465.1068021461035
1102.2320948465936 3327.835043263706 1801.1579400002781
1035.9197009537602 3034.9785238644426 1642.6522333353487
1213.3508171009914 3266.2736127593566 1767.8384220827254
-1829.1292225950647 2983.263606082499 1607.936334754472
-2021.4388519050294 3396.114190695273 1830.4568838839637
-1757.408497534888 3094.1786885157812 1667.7179748191115
-1443.699948865561 2583.617197949877 1392.5326475374372
-1609.6877424765394 3031.678919843059 1634.031495100148
-1465.7111912290068 2971.8199864663666 1601.7683877636757
-1345.1656490879227 3235.90351606942 1744.1056260128175
-1332.1977868003366 3282.55827296596 1769.2518714368327
-1141.4811857124014 2882.9118648333383 1553.848184219798
-1126.0875381697017 3162.8404062125755 1704.7256567638883
-853.8166676604302 2891.71464915344 1558.592758828103
-742.2039371856595 2603.863601886111 1403.4451691365382
-758.1267778701068 3108.263143427944 1675.309294192399
-800.4917881550087 3352.9805475267744 1807.2084683032704
-697.8249328838863 2987.6649982425497 1610.3086220586242
-620.696473737134 2916.362445249725 1571.877567731356
-614.7736893571456 3201.5726572210233 1725.6017850404291
-525.9400837942305 3073.052006147537 1656.33099575918
-514.0199383111471 3198.9318219249926 1724.1784126579378
-480.90812728745124 3201.5726572210233 1725.6017850404291
-433.6779367740695 3103.8617512678934 1672.9370068882467
-407.34364705260367 3152.2770650284533 1699.0321672339228
-369.50693993988904 3112.664535587995 1677.6815814965514
-260.58718681457185 3403.1564181513545 1834.2525435706075
-183.02523060715143 3300.1638416061633 1778.741020653442
-142.39215483433523 3171.643190532677 1709.470231372193
-109.08594836234033 3177.8051395567486 1712.7914335980065
-76.74838897313943 3230.6218454773593 1741.2588812478348
193.82450637602557 3187.4882023088603 1718.0104656671417
306.7537610981833 3317.769410246367 1788.2301698700517
427.57201864844643 3447.1703397518636 1857.975416612131
475.03803478324335 3530.7967907928305 1903.048875391026
471.2353619250095 3249.107692549573 1751.2224879252747
505.15378133826664 3248.227414117563 1750.7480304644441
703.739926395113 3388.1916848071814 1826.1867667364893
696.3134218394079 3192.7698729009217 1720.8572104321245
751.940441505098 3291.3610572860616 1773.9964460451374
847.1866163450528 3400.515582855324 1832.829171188116
866.4742311167159 3339.7763710466215 1800.0916063908135
902.2436130960588 3345.0580416386824 1802.9383511557962
1027.5445566460496 3308.0863474942553 1783.0111378009165
1049.852748024009 3272.875210213848 1764.0328393676975
-1836.5328512578342 3042.4561704303633 1632.9940143828474
-2111.6812283835957 3578.1681170337984 1920.529595253039
-1937.564105317996 3360.535138726153 1803.7182655245235
-1757.408497534888 3097.0846913011083 1662.3150769057945
-1458.9197392700846 3080.343692969751 1653.329590003601
-1447.2724478511568 3119.112320684473 1674.138085987628
-1324.315335004966 3045.099485956367 1634.4127754726674
-1159.695726782982 2727.9016228359123 1464.1614446942644
-1160.7359735872935 2794.8656161613417 1500.1033923030384
-1128.2365185194026 2852.1374525580904 1530.8432159158056
-1323.8771049794873 3432.78576310359 1842.4977353129375
-1015.95419607342 3027.477382449675 1624.9543682072006
-925.8127763185548 3138.4966345418343 1684.5423339796416
-791.9567962829266 2884.7383440454705 1548.3412693569192
-752.5724602900316 2847.7319266814175 1528.478614099439
-775.517961389642 3182.551893308564 1708.1883521433085
-788.9081518784536 3380.8005577588488 1814.5954338798103
-653.1232423209211 2928.7936028122003 1571.9872875205863
-606.4577378469976 2852.1374525580904 1530.8432159158056
-581.6454726260403 2875.9272922921245 1543.6120657241859
-528.1999237417853 3089.154744723097 1658.0587936363345
-499.4508536534564 3111.182374106462 1669.881802718168
-477.86691559440436 3184.3141036592333 1709.1341928698553
-422.11647164169216 3023.9529617483367 1623.062686754107
-394.71724525901556 3057.4349584110514 1641.0336605584941
-367.2079714221635 3096.2035861257737 1661.8421565425213
-337.2332116075774 3119.9934258598078 1674.6110063509013
-258.058679444794 2964.918915000919 1591.3770224147934
-150.88905000207936 3364.0595594274914 1805.6099469776168
292.1082943568482 3569.3570652804524 1915.8003916203054
306.7537610981833 3320.885405836096 1782.4368491772232
339.0778073906231 3295.333355751393 1768.7221586422963
379.12888552137036 3342.913035219461 1794.2598582590567
586.7794127833664 3328.8153524141076 1786.6931324466832
615.7363374567096 3297.9766712773967 1770.1409197321163
768.4550617843813 3087.3925343724277 1657.1129529097877
949.6871746379502 3164.0486846265376 1698.2570245145685
1148.1868606630348 3370.2272956548336 1808.9203895205303
1073.3153061013102 3060.078273937055 1642.4524216483142
-1399.285298972479 2842.457923308675 1519.263622357797
-1458.0851169936143 3081.4607459014924 1647.0080969649837
-1443.1841076029896 3113.2101983492466 1663.9778426692594
-1365.2919033588246 3290.4779745158753 1758.7255895181322
-1250.0295135463602 3085.8703920747917 1649.3650060905775
-1134.858852115902 2871.5615880524497 1534.8192225867163
-1028.8569475301845 2741.036061322793 1465.0547124691382
-989.5109390131554 2865.388083409831 1531.5195498108849
-971.3066164438837 2897.137535857585 1548.4892955151606
-1094.4302329652646 3473.919255325123 1856.7730091428364
-990.8628518513642 3249.9092297215225 1737.0420255626689
-830.924379255618 3274.603248291998 1750.2407166659943
-691.86237452984 2967.6918746303727 1586.1998415246624
-717.5710231516257 3220.8055649777475 1721.4864253337494
-667.3470689561339 3141.431933858362 1679.06206107306
-631.8979307389518 3127.3210661038042 1671.5199518711597
-516.1474440214935 3021.4895579446234 1614.9541328569073
-554.0495592638315 3454.516812162606 1846.4026089902236
-518.5927069621622 3458.9264583359054 1848.7595181158174
-472.0521614687688 3384.844402624479 1809.1634448058405
-384.47962218313336 2980.9208131502705 1593.2705689014438
-347.45774188352124 2932.414705243979 1567.3445685199115
-337.51892175579053 3125.5572076344847 1670.5771882209222
-299.7655734771199 3075.2872412588736 1643.7084241891523
-263.8103587786304 3033.836567229861 1621.55347840857
-233.55783815636093 3055.884798096357 1633.3380240365393
-152.11418372394013 3394.5456242057367 1814.348644882147
-110.65726950218567 3229.624857324346 1726.200243584937
-77.75218261638484 3279.0128944652974 1752.5976257915881
-42.50988031861454 3230.506786559006 1726.6716254100559
18.19828891994247 459.48513125777833 245.58993088687936
302.19599760083696 3274.603248291998 1750.2407166659943
426.4801595609887 3444.815590581348 1841.217408913917
432.99403020881016 3224.333281916387 1723.3719526342245
479.02332103566397 3308.998488443732 1768.6246078456263
690.9144048405504 3704.102785571342 1979.8036654988355
663.9701522708469 3371.615464104581 1802.0927174290591
668.2842628682048 3069.9956658509145 1640.8801332384396
901.4163917284338 3480.9746892024014 1860.5440637437866
886.8104986615209 3294.005691454515 1760.6111168186073
975.1473859043313 3366.323888696622 1799.2644264783464
-1719.6507738446342 3086.0961237350275 1642.5671112827138
-1461.455028074519 2666.7895851840726 1419.392232032345
-1767.6652270749917 3338.562797473076 1776.9418806839883
-1609.3429125530786 3336.797296258125 1776.0021969818815
-1448.904271952441 3064.910109155611 1631.290906857432
-1236.7229250705507 2670.3205876139755 1421.2715994365585
-1424.3287327006537 3281.184007987156 1746.402160365517
-1166.5908839206468 2814.2089366325135 1497.855821158264
-1292.275315769248 3357.1005602300656 1786.80855955611
-1170.5399506006218 3121.406148034055 1661.36078532485
-958.412382889771 2699.4513576606732 1436.776380521321
-1128.3896672957035 3270.5910006974477 1740.764058152876
-1110.8672627030962 3316.4940322861835 1765.1958344076531
-952.4515964978236 3026.0690824266803 1610.617865411082
-859.686760534368 3137.2956589686178 1669.8179386438114
-774.6932473344477 2936.911271071635 1563.1638384546877
-762.8928653063296 3009.296820884642 1601.6908702410672
-638.4913383636955 3162.8954265854127 1683.4433523243601
-600.2368355532648 3134.6474071461907 1668.408413090651
-554.5249068900362 3062.261857333184 1629.8813813042716
-511.05579102722 3411.8310978935588 1815.9387543214211
-471.31419560925536 3382.7003278468605 1800.4339732366586
-433.3927102123485 3363.2798144823955 1790.0974525134839
-385.7042181329555 3258.232492192788 1734.1862722381281
-339.3284193611404 3145.240414435899 1674.046515303292
-300.7112062010225 3087.8616249499787 1643.5067949848205
-258.36543567593196 2973.9867965856142 1582.897196198931
-228.43506883460526 2991.641808735128 1592.2940332199992
-208.22540307118794 3162.8954265854127 1683.4433523243601
-141.00893934191177 3149.6541674732775 1676.395724558559
18.128429845393747 458.1475652798854 243.84792069671866
305.6957088577279 3315.611281678708 1764.7259925565997
337.53654462975663 3286.48051163201 1749.2212114718373
517.9697516883907 3129.3509035013362 1665.5893619843307
689.6614711255824 3329.735291398319 1772.2434621734542
723.5746586470163 3327.087039575892 1770.833936620294
753.8373226881251 3165.5436784078397 1684.8528778775203
961.0074431333215 3868.2131619584925 2058.846991316033
1147.2411483095038 3829.372135229562 2038.1739498696832
847.3551306668727 2735.6441325671767 1456.0398964145108
1070.1834090938662 3345.6248023328817 1780.7006154924156
1063.7821380496193 3223.8052185012357 1715.8624400470453
1062.1896651512245 3034.0138378939614 1614.8464420705627
-1912.7866523685184 3131.3695682966836 1659.6567798028125
-1690.2697368367787 2807.983207688166 1488.258816651619
-1590.4171922214734 2810.6339155620067 1489.663717988924
-1459.9323503349183 2622.433656519345 1389.9157230402786
-1753.6492806256642 3202.938680890372 1697.5891159100438
-1672.6773486072145 3107.513197432121 1647.0126677670687
-1313.0194556385436 2724.9276943078366 1444.2385747494
-1320.7897525142498 2796.496806901525 1482.1709108566313
-1363.7662127331914 3075.7047029460373 1630.1538517194103
-1229.283447539332 2834.490286426569 1502.3078300246677
-1171.6822459228579 2763.804743124161 1464.8437943632048
-1371.8786774838472 3312.501273009105 1755.6583711853116
-1328.2679998186247 3285.1106249794216 1741.1410573664946
-1244.9987161418926 3156.109508452527 1672.7691922843246
