# .PCD v.7 - Point Cloud Data file format
VERSION .7
FIELDS x y z
SIZE 4 4 4
TYPE F F F
WIDTH 870
HEIGHT 1
VIEWPOINT 0 0 0 1 0 0 0
POINTS 870
DATA ascii
179.73642502992539 623.6836336121851 429.0311470794418
215.9027725295925 721.7263712606 496.4746166995918
214.34337353254753 691.2424948489079 475.5047984143351
234.57881478804285 730.7891453289408 502.7088870006141
219.8365682659457 662.4063955405506 455.6684838201733
254.69800395848742 743.1474736039511 511.2101646838263
259.5372083795758 734.0846995356102 504.97589438280403
315.7889091287615 866.7307563540538 596.2229415159482
306.26417170929983 816.4735547023454 561.6510789375519
358.25618637187523 928.5223977291051 638.7293299320091
352.8322246820331 889.7996358007397 612.0919931912777
347.22168284653867 852.7246509757089 586.5881601416411
299.1395208906622 715.9591513989285 492.5073537807595
388.0532339472302 884.0324159390682 608.1247302724453
425.4921236117408 946.6479458657869 651.1978705340537
371.36673444524996 807.4107806340045 555.4168086365297
383.28032020697367 814.8257775990106 560.517575246457
378.6786423024508 787.637455393988 541.8147643433902
426.08288232760776 867.5546449057211 596.7896933614957
411.89411007819047 804.9391149790024 553.7165530998873
448.5036207435276 859.3157593890477 591.1221749060209
512.4874529564114 963.125716899134 662.5329074450033
603.5528759930992 1113.0734333025919 765.6817433346445
579.0652535379434 1011.7351414475077 695.9712663323045
-1925.319881782134 3008.324467439629 2061.6966068275105
-876.9145685186445 3106.484766761076 2128.9688569543196
-719.0022953137743 2884.5929977067135 1976.899652886154
-699.3503798339315 3608.834533876715 2473.2444899562265
-573.2022908416556 3575.8394752812706 2450.631968905198
-453.1057951299092 3576.6643517461566 2451.1972819314738
-263.7831717946196 3744.114274118036 2565.9558262654427
-231.84497736819475 3917.3383317441185 2684.6715617833415
-128.9692043242295 3520.5727521339013 2412.7559961447255
170.07191698886734 4016.323507530451 2752.509124936427
396.2858545733726 3605.53502801717 2470.9832378511237
513.2921572551924 3575.0145988163845 2450.0666558789226
579.5007607091894 3744.114274118036 2565.9558262654427
164.70693276081178 675.573824741721 462.9913685198056
192.55855760800966 755.5868418356733 517.8267320685494
179.83252016643627 676.3987012066071 463.5566815460813
176.30946400160906 636.804630892074 436.42165628484724
179.73642502992539 624.4314839187824 427.94196089071164
192.48865907033306 644.228519076049 441.50947352132863
213.57694907414748 689.5967246447848 472.60168996649264
221.09119409560745 689.5967246447848 472.60168996649264
249.0934249879061 751.4624595112427 515.0001669371708
273.5190108512028 774.5590005280537 530.8289316728907
302.5810079864939 831.4754766051951 569.8355304859145
301.3194423981507 804.2545532639535 551.1802006188162
349.3554115551827 906.5392349098307 621.2790158770041
345.6449015866583 872.7192998495004 598.1011817997
324.95708598479297 778.6833828524843 533.6554968042692
394.9607731571016 923.0367642075529 632.5852764025183
355.86615303268826 811.6784414479285 556.2680178552976
376.61052194355125 838.89936478917 574.923347722396
449.8084834556242 979.1283638198081 671.0265621892664
342.58827407782076 729.1907949593179 499.7367152277267
438.4908546326496 913.1382466289195 625.8015200872097
410.30203483399265 836.4247353945117 573.2274086435688
433.37526217132415 865.2954116655254 593.0133645632186
440.98386810827765 862.8207822708671 591.3174254843915
439.9033595595674 843.8486235784867 578.3152258800502
505.0346841794576 950.2576875487944 651.2406062696166
495.75526033916395 882.6178174281337 604.8849381150085
623.8626469305367 1091.3115630443185 747.9091337627628
695.7252905403313 1176.2738389275876 806.1363754691608
607.0918029633755 1009.648793020594 691.9431441614677
-1005.3061836749672 3432.2819125529145 2343.4540475038348
-505.1055942364761 3154.7923257825155 2153.9928925564604
-10.423989078188244 3747.7611451311664 2558.853336759481
33.801566300439596 3981.4800530359967 2718.429250003847
70.09042355637621 3547.0767118418594 2421.8323229136117
110.82992373725337 3571.8525678035026 2438.7484974624845
237.9850194277298 3671.7818535154615 2506.9770681429377
303.73720977730136 3993.0421191514297 2726.323464793321
353.2556243036779 4045.8972785362675 2762.411303830916
394.1181667096164 3257.199197090639 2223.913080691801
489.8079866335369 3704.8163281309853 2529.531967541435
599.3396354197646 3615.6232466690712 2468.633739165493
641.2889252920584 3624.7077271883404 2474.8363365000796
785.0235648088485 3732.8956315541805 2548.703632030157
151.63495397027117 622.6998465026221 425.1598536616678
159.13409182233985 625.1774320987864 426.8514711165551
180.92905992354866 681.3360389451767 465.1948000939999
166.03235793933908 600.4015761371436 409.93529656768237
179.49899250016327 624.3515702333983 426.28759863159263
197.4179461143877 661.5153541758625 451.6618604549017
212.81052461574743 687.9429338682814 469.7057799736993
233.78542533554665 730.0618890030743 498.46327670678295
235.1485680456633 710.24120423376 484.9303370676848
244.25030313092196 714.3705135607005 487.7496994924969
253.12888224674677 717.6739610222528 490.0051894323466
311.58639512894905 857.2446162728405 585.2996393909963
328.82449919141783 878.717024772931 599.9603240000193
331.8717467366794 862.1997874651692 588.6828743007708
349.5652596386809 883.6721959652596 603.3435589097938
329.4412488457014 810.9963518111074 553.7227802331005
355.2496956952398 852.289445080512 581.9164044812218
361.07673899885157 844.8566882920192 576.8415521165599
324.40237730723715 740.7980932531194 505.7936190112945
384.3871403907632 857.2446162728405 585.2996393909963
363.5156120870994 774.6584297340313 528.9123908947538
367.1915286761212 765.5739492147623 522.7097935601672
449.0742707151853 897.7118476768571 612.929391154155
502.5361097371577 984.4273435426069 672.1360020752096
563.792545894368 1042.2376741197734 711.6070760225792
-1155.548219658138 3048.5765938827453 2073.6802432463596
-679.0492373793236 3512.4364987290214 2389.20360002998
-533.7987654273963 3337.9722564428107 2270.530822344875
-567.2497573460035 3813.407987791489 2593.928202292436
-438.3714969026682 3468.6137269699257 2359.394798052205
-414.70293273691607 3988.6990748278718 2713.1634102035364
-52.269861030586924 3724.108754772955 2533.185737884894
-10.927041878567977 3933.3004765663736 2675.480585061821
117.74878602836515 3799.3516270385717 2584.3668884505078
252.49107886653204 3900.226686559509 2652.9833760219904
170.53904637505298 701.1643481455296 476.94083164440275
175.32078280030575 689.588521643127 469.06680848046216
191.23653364040538 721.0086221496484 490.439157068301
191.1541727582212 692.0690558936419 470.75409915844943
192.32034910731778 669.7442476390083 455.568483056564
203.8260192716587 683.8006083919257 465.12979689849186
212.55504979628074 687.9348321427839 467.9419480284706
226.3804571122488 707.7791061469026 481.44027345236884
243.8982822055019 737.5455171530807 501.6877615882161
247.9211169352017 725.9696906506781 493.8137384242755
248.46828142287112 705.2985718963878 479.75298277438156
311.88657470036424 859.0916954283082 584.3650048095925
312.44508334823627 835.940042423503 568.6169584817113
344.2692545170726 895.4728644358593 609.1119347534059
346.29829459532874 876.4554351819121 596.1760395555035
383.45351062182965 945.0835494461561 642.8577483131513
340.7918592425265 818.5763026698991 556.8059237358004
369.9007062275625 866.5332981798527 589.4268768435544
359.121026383597 821.0568369204138 558.4932144137877
370.31516415295107 826.8447501716151 562.430225995758
420.6296686063545 917.7976726904928 624.2975508552913
399.94468195510296 853.3037821771069 580.4279932276222
351.34723401911486 733.4112934022227 498.8756104582373
368.21977485101905 752.4287226561698 511.8115056561398
507.665073159559 957.4862206987303 651.2942017030878
609.7326379498503 1088.1276912258456 740.1581774104175
-494.7046973001322 3600.211430539202 2439.7292176417595
-263.7250569737792 3756.670377509059 2545.755619604117
-237.5568877392368 4028.197015636642 2729.7591108403776
-173.53426363518346 3634.9800854213922 2463.290640300061
-51.46910161426576 3671.404390536068 2487.974035465901
-10.460741794197723 3769.915579368941 2554.7313996644225
70.72686744897194 3587.7940537955624 2431.3144238352234
114.31498029870227 3692.9278435583765 2502.5596780638975
185.10519553640523 3464.4481114754103 2347.727472023629
376.422431700477 3828.6911626221677 2594.5614236820275
399.41437939613 3308.8169896217955 2242.262056315041
593.3161214959479 3587.7940537955624 2431.3144238352234
165.87118733643462 715.2409004336331 484.69212325649124
164.90804012682008 678.8165953189573 460.0087280906514
173.84926543867246 684.6113711326558 463.935631867035
201.10539145441714 759.1156315944925 514.4243947062529
166.03235793933908 601.8288595083926 407.83700649012627
212.50211413709806 740.9034790371546 502.08269712333293
214.9169151207816 721.8635013635742 489.18001328664394
221.09119409560745 692.0617971788395 468.9845081509568
245.37978430146958 719.3800260148463 487.49705452533664
223.1262644430472 634.1140390418552 429.7154703871207
293.5933028494802 786.4338604304993 532.9369410806327
344.5871393319545 897.3624260070119 608.1090990856903
335.1906134479314 849.3485692649393 575.5718963670834
323.73809076996116 798.8512371741388 541.351734887169
307.056907519529 738.4200036884267 500.3997383620257
328.0189032526913 750.8373804320662 508.814532168562
369.9448489887981 826.9972911263883 560.425267515318
369.0930605608913 806.3016632203224 546.4006111710908
449.93776719949085 961.1049599576944 651.3050406259101
427.39984837274517 893.2233004257987 605.3041678168449
402.20929252957467 822.8581655451751 557.6203362464726
466.4258064741897 934.6145562379303 633.3534805052993
576.1671244570895 994.2179646073997 673.7444907766736
507.8892198124018 861.7659460085788 583.9866901736196
-542.154104031481 3283.717329955756 2216.899748962104
-535.2532579762449 3354.994384568627 2265.0202382126695
-569.2176663047061 3835.700101725199 2589.553770367647
-444.4324139039446 3524.898991494657 2379.7260556122737
-230.28274547184137 3909.4635652199145 2639.3528813362555
-46.07267946079708 3290.3477536406745 2221.3760735435517
-9.502874133200699 3428.7578480633424 2314.819349181278
30.267861796099925 3577.942380974003 2415.5366522638574
78.4131513826281 3982.398225754015 2688.5924517321832
111.67556246172259 3611.9233023592087 2438.477815743778
279.3000278531296 3684.8579628933094 2487.717386139706
516.7267379105687 3616.0673171622825 2441.275518607183
527.8788565963025 3195.8642161305893 2157.5884482579186
137.45806728343425 593.4229198001821 400.6310500395927
154.85267182640425 638.1782796733802 430.8462409643665
159.34430858828748 628.2326441460028 424.13175409219457
175.66566908940908 663.8711714524384 448.19199871747736
172.8837619808524 627.403841185388 423.5722135195135
204.90427318471018 715.2569550105546 482.8835142236991
222.803774391269 749.2378763957606 505.8246777036199
234.78135908988222 761.6699208049823 514.2177862938348
198.34736312404976 621.6022204610846 419.65542951074656
217.1022825909961 658.0695507281349 444.2752147087104
220.53119854942202 647.2951122401428 437.00118726385745
223.41755199453945 635.6918707915358 429.1676192463235
307.3838811291366 848.6942316695341 572.9695464253393
327.2792712816837 877.7023352910514 592.5534664691742
343.6334848873089 895.9360004245766 604.8633590681561
323.1028427875284 819.6861280480168 553.3856263815045
292.8739411836022 723.5449846167024 488.478919950509
317.72816775843637 764.9851326474414 516.4559485845588
336.36963075846097 789.8492214658847 533.2421657649886
380.09687686723106 871.0719116061332 588.0771418877262
379.2027280926219 848.6942316695341 572.9695464253393
425.555962022465 930.7457247703973 628.3640631207579
404.59520151272045 865.2702908818297 584.1603578789592
417.10105684569106 872.7295175273628 589.1962230330882
432.15243905592126 885.1615619365845 597.5893316233031
460.64196122118824 924.115301085479 623.8877385393099
574.2777592114422 1045.9493362958517 706.1402027234162
708.5752230001009 1224.141972828029 826.4414258498302
-920.9232922175356 3281.7730986235706 2207.2585551200496
-388.8269827464908 3753.0871618392944 2524.255485412891
-269.2459649536181 3844.3627726733253 2585.645735997772
-172.38817079860402 3619.4928587094855 2434.40248228411
-143.2924008682044 3934.808605227047 2646.477893395518
29.812126096135483 3528.217247875454 2373.012231699229
70.66159115229546 3592.9399537395852 2416.543500295781
118.95318057533645 3851.83077719611 2590.66857468199
183.2917396183664 3438.601193602042 2312.7381674886183
249.43998887386886 3866.7667862416783 2600.714252050425
381.4685270011104 3889.1707998100314 2615.7827681030776
543.1143943725252 3529.876804436073 2374.1284180734997
842.6961082761953 3824.4480939459004 2572.2514995065253
167.3213285189199 690.3755292173984 464.3335316965566
160.1851756520779 632.2910495957423 425.26700859708666
176.7622088465215 668.8012939293546 449.8231088310392
175.85270373217483 638.9292758382172 429.73175409416893
214.1641418454329 748.4600088390545 503.40005479602644
204.5654123282669 688.7159726567796 463.217345322286
209.74482678214724 681.2479681339953 458.19450663806845
221.09119409560745 693.6946423386358 466.5659044450977
224.48485391335996 681.2479681339953 458.19450663806845
242.27371108246362 711.9497645054421 478.843954562074
242.35124284153432 690.3755292173984 464.3335316965566
288.77274770139593 798.2467056576169 536.8856460241435
332.84209175672646 893.6712078931948 601.0663625447012
311.8450033991212 814.012492983495 547.489416579714
356.42588622972045 905.288103817526 608.8796671645952
292.2029814099857 722.7368821494639 486.0991659948327
387.26347641196196 933.5005653480447 627.8548355271948
337.42850682590625 793.2680359757607 533.5370869013318
322.95576692905547 740.9920043162701 498.37721611180893
404.2076582162523 865.4587463626762 582.0911941821015
471.76387341236284 988.2659318484633 664.6889858781236
409.4927606035509 839.7356196730856 564.7903053809077
375.5368096413095 754.2684568012202 507.30670710597343
454.0937905131018 876.245864006698 589.3464056148603
603.674270933258 1142.6046919860066 768.4943186852865
622.9195439117453 1096.1371082886817 737.2411002057106
508.37710571039645 864.6289680823668 581.5331009949663
705.793819948434 1180.7744928802379 794.1666052935096
-1901.672277106266 4032.465705213223 2701.950468879699
-900.8085245441717 3093.716993451595 2072.9426341384424
-589.4114152291003 3461.739718505047 2319.5359711210767
-636.6710566095896 4000.066413391361 2680.241348919603
-365.1166041119359 3955.2058554841683 2650.182567436392
-100.44210142724486 3990.097400523096 2673.5616197011113
-10.035788515338131 3629.5514351208426 2431.9780796323457
33.12146840972343 3924.468065807018 2629.5867356793774
622.1430286265434 4048.2499755879758 2712.526706808977
769.9135979640764 3682.71950375159 2467.6033021309654
880.5433841306481 4000.8971644637168 2680.7979930211436
138.4179699879275 598.9715231682599 401.34039721101425
162.4947517347203 671.2468664631817 449.7684340450756
159.55452535423507 630.540063917766 422.4928730695698
168.8671225953121 639.6783257136756 428.61595818652006
172.65538184613527 628.0478107006998 420.82294076494696
190.42088886922082 666.2623600290492 446.42856943582996
193.7209808313467 652.9703428713624 437.52226381117504
210.00030160161393 682.8773814761577 457.5614514666487
219.76887834144713 690.3541411273565 462.5712483805171
243.8982822055019 741.0299565410372 496.5265385745141
245.66215459410648 722.7534329492179 484.28036834061356
251.96373204077787 718.5996775874409 481.49714783290887
278.5666422732801 770.9369951458325 516.5657262299878
285.249072136916 766.7832397840554 513.7825057222831
334.41482525573446 873.9501281179049 585.5895948210638
295.3336399190351 750.9989694093023 503.20626779300534
344.20236386526443 852.3506002366639 571.1168481809995
354.56122729272965 855.6736045260856 573.3434245871632
331.0752504212344 779.2445058693867 522.1321672453971
379.01191908359476 870.6271238284831 583.3630184149
350.9036694860219 769.2754930011216 515.452438026906
361.19035230829064 774.2599994352541 518.7923026361516
371.5487097067979 779.2445058693867 522.1321672453971
420.8225998297361 863.9811152496399 578.9098656025725
387.9307637548841 780.075256941742 522.6888113469381
443.09182158871874 873.1193770455494 585.0329507195228
404.64150477225644 766.7832397840554 513.7825057222831
481.1446687228481 894.7189049267904 599.5056973595871
565.1766853729091 1031.7928318654353 691.3519741138414
506.6048987732611 877.2731324073266 587.8161712272275
-756.409130115091 2930.1542589408723 1955.946067459598
-591.6260982698204 3266.1696777918833 2180.2441688656945
-603.8390524629299 3550.6183739479375 2370.120284412439
-393.984979422323 3811.778872757882 2544.450986990445
-171.7558437163533 3614.660916649739 2412.8701700764723
-142.89957058324305 3933.210187491168 2625.5092117560143
-51.94491518048558 3722.784690042391 2485.045301717048
28.95674524389453 3435.0091085511785 2292.9484128890545
119.05568223890847 3864.1773167866286 2579.4281661701084
198.81669150206488 3738.5873953843943 2495.593974802978
518.0871369986921 3946.5177288318023 2634.3923048810084
567.244300469471 3695.3378860273333 2466.723922146748
682.9192901028222 3657.07870467301 2441.1850294123906
153.2438128983377 633.7716563476993 423.05731007783527
184.1498869701053 728.5878883997174 486.3493485934169
187.94691436906814 712.7851830577143 475.80067550748663
178.59326534878014 650.406083023492 434.16117648407766
184.4850756251678 646.2474763545438 431.3852098825171
217.62802299501163 734.4099377362447 490.23570183560173
182.40902109921208 593.849032325797 396.4080307028535
220.56226779394333 693.6555923805528 463.03122914030786
242.8045679355221 738.5685444051929 493.01166843716237
287.20952577133755 820.0772351165768 547.4206138277501
295.6768778439449 819.2455137827872 546.865420507438
328.20640802752416 883.2880564845888 589.6153061714712
312.7986578437668 818.4137924489976 546.3102271871259
300.2340874840633 764.3519057526714 510.22266136683805
314.68013382613844 780.1546110946745 520.7713344527683
345.1935979871719 813.4234644462598 542.9790672652531
437.3422088646352 982.262895205555 655.6833112886135
379.70353868789846 833.3847764572109 556.303706952744
406.14537469859295 871.6439578115339 581.8425996871015
420.2699157770923 882.4563351507992 589.060112851159
434.2015257788958 874.1391218129029 583.5081796480379
416.11001703907266 820.9089564503664 547.9758071480622
428.4287254458787 797.6207591042568 532.4303941793229
611.1226059694927 1097.040439268524 732.299989491686
503.9861326284448 859.1681378046895 573.5146998824197
-1865.2372705609666 3964.4326225462096 2636.3601767003274
-1877.2629705408938 4079.3437130547954 2712.776413706134
-573.3967226928792 3169.21456866433 2107.537666986231
-588.2798358382116 3463.1538074290456 2303.008186283693
-453.3019411943944 4390.7694221142965 2919.875490808827
-373.6290895260138 4056.8611083900723 2697.8254108136935
-331.6993135836803 4097.662872411237 2724.9587123592337
-260.9355455734395 3738.7738868373203 2486.296406928055
-222.27630700303024 3791.2332977216747 2521.1820803437495
-194.0058529230507 4087.67060367136 2718.3138221848158
30.050510923809192 3568.9053182594107 2373.3332739629495
274.52566840264876 3638.85119943855 2419.8475051838755
343.297257710835 3512.2824620667743 2335.6788963079143
524.3065021155369 3686.314475952966 2451.410733512361
522.4029348473782 3177.541459280894 2113.0750754649125
160.68478544064544 665.3185602634786 442.4389374466628
158.50344152449702 627.8475524889398 417.5205992925954
171.71812596380437 651.9955352769759 433.57908388077215
190.9257926235041 696.1280555447661 462.92734881778483
186.38453586326477 653.6609134002887 434.6865655765085
200.12905398861773 676.143518065012 449.6375684689489
196.204661350413 639.5051993521296 425.27297116274974
235.1485680456633 716.1125930245202 476.2171291666208
234.3673428886303 691.1319211748275 459.60490373057587
276.7231739176173 791.0546085735979 526.0538054747554
312.18675427177936 865.9966241226755 575.8904817828902
325.7340433719496 877.6542709858654 583.6428536530445
322.9709719199869 846.0120866429214 562.6007014340543
307.7481070837733 784.3930960803465 521.6238786918102
301.8933945007028 730.2683070726792 485.63072358037954
366.01816064692974 863.4985569377062 574.2292592392857
337.06021811632667 776.0662054637822 516.0864702131286
388.8309223605986 874.3235147392397 581.4278902615719
336.50373488508365 739.4278867508999 491.7218729069294
437.1488384160428 939.2732615484404 624.6196763952886
339.067905659935 712.7818367778945 474.0021657751481
400.1861069534702 823.5294819781982 547.6496985416139
387.5176319510983 781.0623398337208 519.4089153003375
442.2486401965423 873.4908256775833 580.8741494137037
478.29239621509396 908.4637662671529 604.1312650241666
737.0411921597843 1237.3759456214382 822.8588999320913
-1891.0943719802112 4024.0490792691976 2665.8878460341725
-911.9355900997657 3142.876533839833 2082.1208161485047
-935.8257171737738 3350.4564428388035 2219.6402016182597
-589.5323887605804 3074.516885093184 2036.833307680553
-626.7289454551701 3468.0016925129194 2297.5126247155913
-646.5880512608294 4076.569297208696 2700.6819074180867
-265.9334201657148 3814.801861764211 2527.2638871871504
119.64506680444762 3892.331707293947 2578.626549230071
188.5994154760411 3554.7017348257423 2354.950440333481
442.6143999147117 4069.9000631846325 2696.263613909018
517.9779510899463 3954.8557762695405 2620.0480508775877
576.999308721426 3292.1006451282497 2180.980133413911
849.2782432074046 3872.324005221757 2565.3716687028655
135.3462813335491 587.7262483705789 389.36211548665665
180.1921999434522 746.9542106950903 494.8488730156658
201.20289868577404 734.4493968999716 486.5645726861625
186.38453586326477 654.4185886112119 433.5450505773411
227.11711450588172 741.118630924035 490.9828661952309
241.71085366554226 736.9503596589954 488.2214327520631
240.8618596192791 711.10707781575 471.1005454044229
246.1379810109333 704.4378437916868 466.68225189535445
282.7767074813414 762.7936415022407 505.34232009970333
312.1628882140031 818.6484764537709 542.3455282381516
325.0630218135397 829.4859817428737 549.5252551903878
321.72521144911167 799.4744286345889 529.6429343995798
327.3667253935785 792.8051946105255 525.2246408905113
323.31015925996877 763.6272957552486 505.8946067883369
375.75704573268604 866.1667688752219 573.8258694902643
391.0528133455163 880.3388911763565 583.2147431970346
396.0692489904217 851.9946465740874 564.4369957834938
379.86696440172625 799.4744286345889 529.6429343995798
404.72706824469077 800.3080828875968 530.1952210882133
436.8932681451813 846.99272105604 561.1232756516924
541.8601299008764 1030.3966567177808 682.6263471510747
575.9100828052157 1036.2322364888362 686.4923539715096
-1925.056280678747 3850.087782322056 2540.9826973858826
-616.7071463769846 3219.9520191195516 2125.10540787226
-616.936305682433 3417.7562255817943 2255.652318620245
-399.6587757657386 3880.1339908985988 2560.8126078792475
-295.0984748769259 3653.9528096696204 2411.537448331974
-267.8512092534483 3846.7493147024397 2538.779373997731
-140.57280658770284 3882.6378416133107 2562.465100420361
187.84749472953717 3544.6179951271993 2339.3786073700076
246.33537098659752 3840.906996368112 2534.923558068466
302.4196955153348 3500.3832991672884 2310.1845724769983
350.785012027904 3597.19886013615 2374.0809507333956
432.2788731653719 3979.453402582172 2626.361478676759
545.2692874949021 3842.57623017792 2536.0252197625414
599.887227594657 3657.2912772892364 2413.7407717201254
670.0281595414089 3600.537327755766 2376.2842741215472
753.9192184248196 3825.049275174936 2524.4577719747454
177.5778041853441 736.9667270302135 486.3836379344753
173.42883190677725 688.5589465457828 454.43544880627644
191.89445749467285 730.2897917909817 481.976991158172
198.69071720388584 726.1167072664618 479.2228369229824
189.70859127993447 666.8589070182793 440.1138467832908
189.77755119610302 642.6550167760639 424.13975221919134
204.63533039281356 668.5281408280873 441.2155084773666
239.86807780468416 756.9975327479091 499.60357826338515
244.7185679079868 746.9821298890613 492.9936080989302
278.17961167507843 797.0591441833001 526.0434589212049
272.8632304163918 758.666766557717 500.70523995746095
320.78931406080045 866.3323472903303 571.7624192253514
305.4873071014837 802.0668456127239 529.3484440034323
307.7481070837733 786.2091244195483 518.8826579097121
353.93128058270366 880.520834673698 581.126543624996
386.2307738081967 936.4401673022645 618.032210376536
337.7814655150547 798.728377993108 527.1451206152807
367.0773834635961 847.1361584775387 559.0933097434795
353.2806666019153 796.2245272783961 525.492628074167
358.48258243388415 789.5475920391642 521.0859812978637
394.51907580454923 849.6400091922508 560.7458022845932
418.6854863113917 882.1900684835059 582.2282053190718
473.4254248084531 976.5017787376555 644.4720910343557
532.5268950799208 1075.8211904212292 710.0209618318671
395.4351433419017 752.8244482233891 496.8494240281956
467.7423102626016 873.8438994344662 576.7198968486927
707.4345520922024 1210.1945121107697 798.7047282049707
628.0477909651801 1039.932663510358 686.3352354092369
-2414.933040028585 3851.1744594258635 2532.0616665211587
-1889.5272749244994 4029.987940510076 2649.6275586095785
-577.313778601974 3201.9311192275786 2105.198591041241
-605.9607638208461 3579.6119297418963 2353.5153350784644
-622.5228109071544 3933.896583852672 2586.4496259452408
-501.2796354331583 4008.2629381353586 2635.343852094163
-380.3162882313675 3696.592711759605 2430.427600930702
-265.00358303226824 3810.2311857196655 2505.1423734728755
-167.68523812436425 3545.3532721509955 2330.991028650309
-9.865807203794295 3588.8032769004303 2359.5584416811403
183.33597025051367 3463.466724738599 2277.152442553743
222.3548742021569 3470.9869178683093 2282.0968025013867
301.9782352429137 4016.6187082794804 2640.837585369323
374.14354995180383 3841.147535252917 2525.4691865909667
430.8282729198505 3970.661972486809 2610.6220523559437
551.5462797271414 3891.2821561176497 2558.4315862419257
742.2394749144199 3770.1234890278793 2478.7724537521085
170.33793900904465 707.7337312071396 465.3192084060363
187.51335522526705 745.3346968556889 490.04100814425544
194.52615291174263 741.1568117836279 487.29414150667554
178.59326534878014 653.4212252703461 429.6099421174975
182.82304791683296 643.3943010973996 423.01746218730574
210.48055678113244 713.582770308025 469.16482169864815
197.7375102672131 646.7366091550484 425.21495549736966
241.16399653055234 736.9789267115668 484.54727486909565
238.8852675708208 706.8981541927274 464.7698350785203
253.420169798239 726.9520025386204 477.95479493890383
318.49052527149803 886.547212291352 582.8851004944563
310.2817642746085 838.9193224698562 551.5708208260454
304.21576784195616 799.6472027924824 525.7502744327943
292.72006788435334 748.6770049133378 492.23850145431936
351.5829213750459 875.6847111039933 575.7432472367485
320.1378071672219 777.0866234033529 510.91719458986273
399.9021948051797 946.708757329031 622.439980075607
363.46085751814195 839.7548994842683 552.1201941535613
376.29302786136043 829.7279753113219 545.5277142233696
429.7855157831484 926.654908983138 609.2550202152235
418.7994142536316 864.8222099166346 568.6013939790408
435.8540529940391 881.5337502048787 579.5888605293604
491.8827392789509 937.5174101704966 616.3968734729311
418.6493965725253 768.7308532592308 505.42346131470293
500.0830454444878 856.4664397725126 563.107660703881
712.7376804398451 1200.724169710342 789.4494716404654
-1964.5566173907748 3785.318968200938 2479.311458646974
-1756.1739526411343 3833.8379737601986 2511.090478448416
-182.07067924556824 3853.914803646789 2524.240417676599
-143.62479572471014 3976.048852123549 2604.235881314711
29.896261917667378 3566.983443184265 2336.3058695404857
73.35423839020048 3760.2229308427 2462.8740346117456
153.79475261901476 3683.261749610769 2412.4659342370446
205.27436379556912 3882.3569793194592 2542.8694982498578
561.3714132712726 3678.2425421391213 2409.178449429999
214.03904740262342 1353.5129481876504 886.5250696333269
677.0173267132594 3646.45422815202 2388.3577123187097
841.2334116248156 3848.8955961751417 2520.952932869553
161.65669301371116 643.2950909495075 421.3459694363587
182.58561538707085 643.2950909495075 421.3459694363587
227.97952578752634 773.7944852123464 506.8205744195472
228.23169916807325 721.929341338654 472.84989808007487
246.90599644794645 755.3907244829717 494.7664634603796
234.64971318126723 695.1602348231999 455.3166457758311
269.44098513031156 773.7944852123464 506.8205744195472
318.49052527149803 887.5631879030266 581.3368967125833
305.02798938151255 825.6596290860389 540.7912507590196
320.74577821581374 844.0633898154136 552.8453617181872
328.0032903525567 839.8807169223738 550.1057910456491
316.0220533733714 788.0155730486815 516.1351147061768
376.2539626322344 891.7458607960663 584.0764673851214
378.28861389450395 875.0151692239075 573.118184694969
334.76490839426776 756.2272590615796 495.3143775948872
431.9980380281479 953.649419613054 624.6221133386853
407.87421214266726 843.2268552368057 552.2974475836795
415.610594608534 841.5537860795897 551.2016193146643
502.11451904106946 996.3126831220591 652.5657341985738
546.1165851814766 1062.3989148320866 695.8509508246757
481.1446687228481 900.9477411607537 590.1035228647053
510.11518864978353 937.7552626195031 614.2117447830404
546.9030157211341 953.649419613054 624.6221133386853
687.9191161724174 1179.5137558371985 772.5589296557422
-389.4287490253379 3793.8278634214644 2475.4333242337443
-394.4118241856094 4307.208984895495 2810.4091802503635
-266.57268319495927 3841.564770312198 2506.581160763838
-135.828625453939 3764.515727611365 2456.307459697722
-9.884183561799034 3603.7177254531043 2351.388431385828
30.45716739454669 3638.0547988306494 2373.7930155565973
187.22826587947512 3545.093453832905 2313.1367023137836
247.24534519493565 3868.364437338575 2524.0676654824865
306.0250805357847 3554.305839373222 2319.147688310819
497.3035921353375 3516.61880761738 2294.557291050219
559.4563413588165 3669.879403424472 2394.5582399099926
642.1887231050972 3928.663688147923 2563.4123010994467
571.885361948762 3277.934273163711 2138.8181083997515
671.425992975779 3620.46751734459 2362.3174968349836
750.7936532600648 3822.3025096369897 2494.0127354973088
841.2334116248156 3853.289624636238 2514.231506578247
148.20897757375872 646.5419670113401 421.8619263374063
162.89696646673693 678.3665716051626 442.62715069080195
161.86690977965878 644.8669878221915 420.7690197924907
163.9769367268851 601.3175289043293 392.35344962468616
206.0914358335208 726.9409680904705 474.3214404933532
206.53712714588875 701.8162802532422 457.9278423196198
227.62806414481508 746.2032287656788 486.8898657598821
219.76887834144713 695.9538530912223 454.10266941241537
236.78913945063303 725.265988901322 473.22853394843764
250.18007927629694 742.0157807928074 484.15759939759323
298.56974027953447 858.4268344386317 560.1146042692247
308.5845994147973 860.9393032223544 561.753964086598
305.6460805454062 828.2772090339578 540.4422864607446
304.53365265683806 802.3150316021552 523.5022350145534
330.9435588915736 848.3769593037404 553.5571649997313
334.8089270346334 835.8146153851262 545.3603659128646
307.40114172078404 747.8782079548273 487.9827723047977
313.07435727466407 742.8532703873817 484.70405267005106
337.7835233054175 782.2152813323726 510.3873564755667
366.2416973472686 828.2772090339578 540.4422864607446
330.44060452679383 730.2909264687676 476.5072535831843
441.82704950045405 877.6890951138399 572.6830295357537
529.1465831637199 1010.8499406511496 659.5690998565407
-1725.5185050715747 3775.504593487472 2454.0933284117373
-622.0586095635571 3461.9272632711018 2250.266789476363
-546.1285035276112 3237.22479135135 2104.209269597539
-470.2435604438633 3772.989267309266 2452.458356174288
-337.83315579788774 4202.2716017231205 2731.4936180323402
-228.18349636111648 3918.878185645224 2547.2867459463605
-74.42741568104098 1412.7748700924694 918.3094067008167
-9.884183561799034 3607.81618160706 2345.0951792484357
74.23546839533303 3814.072928219967 2479.1629027192967
179.70905841443596 3406.590087350566 2214.297400252474
283.19490003641664 3779.696803784482 2456.81828214082
465.4595289832296 3574.278499230978 2323.2955494157754
562.4421907717832 3981.7613401003787 2588.1610518825983
532.2623202019412 3495.4649456471843 2272.066419309024
612.8925417483522 3753.7050999430185 2439.9235690205082
605.106562256219 3266.570263430422 2123.283945701117
727.1051593798173 3705.913902557101 2408.859096508967
795.7915871579964 3841.7415161802346 2497.1475973312417
157.66817495052067 657.3385745712143 427.2727447201426
177.84338399167703 709.321982254142 461.06217096076614
191.89445749467285 733.6368019768017 476.86690258944486
180.19192629179992 661.5307848682246 429.99769844922514
193.98237681565263 685.0071625314822 445.25743933208736
207.0300558502942 704.2913298977296 457.79222648586705
228.39448860321514 749.5672011054409 487.2217267599585
243.04163561466896 770.5282525904922 500.84649540537123
209.4462827011373 642.2466175019772 417.46291129544545
212.90720064822563 632.1853127891526 410.9230223456473
254.58532000420792 732.7983599173996 476.32191184362836
289.3731068442263 808.258145263585 525.3710789671142
275.66865909656457 747.8903169866367 486.1317452683255
288.6394119127442 761.3053899370697 494.85159720138967
326.42192986442717 815.8041237982035 530.2759956794627
328.0551937960887 799.0352826101623 519.3761807631325
395.31373184625005 939.0551065303061 610.3896353144894
371.7788671926865 861.9184370653168 560.2504866993706
326.2476596187499 738.6674543332141 480.1368470643439
368.16613164471687 796.5199564319561 517.741208525683
380.65917913457656 805.7428190853788 523.7361067296646
422.03651117539874 874.4950679563476 568.4253478866183
434.2015257788958 881.202604431564 572.7852738531503
549.0499515880969 1030.4452910051307 669.7936266084888
-2073.0159728274384 3789.854745407515 2454.0224140606656
-1658.6345859803116 3716.8276440009918 2406.7356034242807
-621.7040498915538 3087.283666358547 1999.0906841451003
-474.11000749640175 3808.3213687516936 2465.9799983595217
-263.43448286957715 3804.963800870934 2463.805892123366
-236.92223103134324 4073.56923133171 2637.734391015816
-98.49725124345687 3953.5361795945505 2560.0100930732524
167.3823426187415 4022.366321150125 2604.579270914443
224.65657367030633 3522.9280988871187 2281.180968286293
283.19490003641664 3783.9790016161855 2450.2177281473932
352.1686188038841 3632.0490550118093 2351.839420961351
410.61053199789626 3801.6062329901742 2461.6317858872103
460.65534899841555 3541.3947222312972 2293.1385525851492
528.5701194808315 3746.206362957639 2425.7590329906425
604.7797099536089 3976.1997627896785 2574.685310167303
560.5974890461251 3437.3101179277464 2225.7412592643245
651.5168188373863 3742.8487950768795 2423.584926754487
673.4770412898127 3436.470725957556 2225.197732705286
782.0710425518241 3779.782041765236 2447.500095352199
174.89427275867124 764.6860848430224 495.1526952844444
171.9467979371112 717.6801345123866 464.7152079782656
162.07712654560638 647.1712090164328 419.0589770189974
172.19862157670107 632.901545523204 409.81902551533597
198.0187298216087 700.0529031383982 453.30115023844854
209.49469937232152 713.4831746614369 461.99757518307104
210.76672606001398 692.4983754066889 448.4094112070984
234.3143516372108 743.7012855882743 481.5645313084717
219.56313969845073 674.0317520625105 436.4518269082424
277.8319781701923 754.6133812007433 488.6303765759775
301.67268932290114 796.5829797102397 515.8067045279229
343.3580260563118 882.2009606696121 571.2464135498914
321.38973156230344 804.137507441949 520.6984435592731
326.3340227898133 795.7435877400497 515.263177968884
364.25336720118753 866.2525132360034 560.9194089281522
336.2461690508796 762.1679089324526 493.5221156073277
367.19833232392574 813.3708191140381 526.677235708701
394.13153250808114 853.6616336831546 552.7665105425685
415.1205200135653 879.6827847590423 569.6158338727747
449.95647212564086 933.4038708511976 604.4015336512647
499.0632189732694 1013.9854999894304 656.5800833189998
511.81110505109854 1019.02185181057 659.8412426732333
-1672.2546649194653 3667.240810129231 2365.5529671775907
-639.7906005545218 3180.6843415075937 2051.699812274789
-576.6401823207519 3664.719792157098 2363.926785027835
-563.0692691735237 4159.679654019178 2683.200547096488
-337.81529954065905 3701.6947224150463 2387.777456557582
-322.73446727060787 4023.544683524005 2595.386711009694
-185.9832030669946 3954.636858952374 2550.9377322497116
-98.49725124345687 3957.998216248551 2553.1059751160524
-9.856619024791925 3605.8960394739984 2325.9825348668746
31.3476048390926 3757.1571178019685 2423.5534638522017
76.0468856281055 3915.981250046337 2526.0029392867946
158.75474691197414 3819.342227781245 2463.6659568795026
210.40511712465465 3997.4941644786322 2578.582828795554
273.7090016545402 3661.3584348609206 2361.7585421614945
349.86656238445505 4077.3264002628384 2630.0785968711434
140.27653696785532 1236.9794849931777 797.9133748133395
492.8475654695304 4144.553546186381 2673.4434541979554
548.4670005188731 3891.6114096490533 2510.2831785058256
762.271775651778 3688.2492932303376 2379.1044850922194
143.9854056739884 630.2544930332087 406.5455374388618
166.51689905488664 695.8009603086625 448.82627333250343
166.07124509861094 663.8680659949799 428.22796610226777
169.30573849815707 648.7419581621829 418.4708732037351
175.6243235974577 646.2209401900501 416.84469105397966
195.8818370537496 693.2799423365296 447.200091182748
217.1350942906062 740.3389444830092 477.55549131151633
226.60616486694835 745.380980427275 480.80785561102726
239.86807780468416 762.1877669081605 491.64906994273025
232.68771093820868 715.1287647616808 461.29366981396186
245.94452488674338 731.9355512425665 472.13488414566484
242.05995529004207 698.3219782807953 450.45245548225887
292.07472298696285 817.6501622950829 527.42507723735
301.93753356204434 821.0115195912599 529.5933201036906
285.14267894904356 753.7843736677177 486.22846277687876
367.86026388145297 946.2220788738574 610.3603668748779
295.89326016487644 741.1792838070535 478.0975520281015
384.8538370031764 939.4993642815032 606.0238811421967
311.3095638289219 741.1792838070535 478.0975520281015
326.5722928745096 758.8264096119833 489.48082707638963
359.20570922836254 815.12914432295 525.7988950875946
368.3351692661051 816.8098229710386 526.883016520765
394.51907580454923 855.4654318770754 551.8178094836818
416.7049494792659 884.0369688945808 570.2478738475769
506.6056682565669 1052.1048337034365 678.6600171646066
441.22476644325474 897.4823980792893 578.9208453129393
447.64359462513164 874.7932363300938 564.2852059651402
491.8827392789509 942.8607215776804 608.1921240085372
-1955.9707880304081 4110.514200935539 2641.338487189264
-580.6282105250542 3242.3089910776844 2083.446281135371
-559.4245613705523 3327.2786870036953 2138.0461966503353
-236.14111508316654 4069.291279149652 2614.8494192661624
-74.25073338862309 1414.1986024913303 908.7372077292575
-141.87216829949801 3949.8289343823894 2538.08518161146
-99.79381803264887 4014.6078114744964 2579.7108597763336
171.43416894256745 4129.022451533284 2653.2315380935133
197.8878482269718 3763.9051442868604 2418.614079346043
371.0507818643188 3835.4142943236025 2464.5645032942803
546.6891952757765 3602.378593615632 2314.8201805453186
617.683973278661 3795.8739407738744 2439.1566218170196
624.6762303374006 3383.6447229150094 2174.2659425860047
689.7628808324829 3527.5043071065725 2266.7073837054
798.0493982957211 3865.700522574458 2484.025859319416
160.08146334262048 669.6621579911356 430.31220544466925
165.86102833266335 663.7731691645804 426.5280528842262
173.47258957518426 665.455737400739 427.60923933006706
186.8149501985961 688.1704085888806 442.2052563489189
200.15562258946778 709.2025115408635 455.72008692192986
220.5855952214444 752.9492856809879 483.83093451379267
233.5209621847146 742.8538762640361 477.34381583874745
228.03942529079438 701.6309544781496 450.85474791564593
233.8026023033565 696.5832497696738 447.6111885781233
234.77776650273637 678.0749991719288 435.7181376738736
286.67149070148974 803.4263327657469 516.266527889019
272.88724885904315 742.8538762640361 477.34381583874745
326.46770488368753 863.9987892674577 555.1892399392906
298.273908458052 768.0923998064156 493.5616125263606
330.78316839293444 829.5061404262057 533.0249177995527
399.31167345588966 975.8895769720067 627.088138587709
311.3095638289219 742.0125921459569 476.803222615827
322.95576692905547 751.2667174448293 482.7497480679518
335.50553872257365 762.2034109798605 489.7774599659175
361.514147613029 802.5850486476676 515.7259346660986
391.41872943280424 849.6969592601093 545.9991551496431
404.8217284865112 859.7923686770611 552.4862738246884
454.0028432778499 943.9207804849927 606.5455961167323
404.86916771010266 824.4584357177298 529.78135846203
534.8457592872728 1026.3666240567657 659.5237319629352
605.603832858073 1027.207908174845 660.0643251858558
-2039.957910802283 3742.01167045986 2395.3282986142435
116.00625774764069 3812.7586838108905 2440.6147215455053
169.1986785570083 4079.7444365760884 2611.5170557027677
182.67251076830433 3478.3948230923297 2226.582460787042
245.37186888365125 3860.765585727661 2471.344794248862
358.4355436127353 3709.1648428325957 2374.3024593961577
498.433673424453 3844.7632850887376 2461.1014366810764
530.3466267163709 3771.489592689456 2414.1976415022696
515.2820159114979 3399.225546247129 2175.9047970306297
598.7920432448722 3683.898052350085 2358.128736920707
670.3653655137763 3864.134491125329 2473.5012905789217
742.4039783441439 3800.967514919052 2433.066984390295
778.2501313956749 3774.016271737707 2415.8150137498146
169.53350954501138 709.9968125585555 454.4816015601637
177.21273369383422 709.9968125585555 454.4816015601637
195.26501518312918 720.1035287515598 460.95109055034396
215.3513044942435 763.8992989212453 488.98554284112515
212.4522715987543 725.999113197479 464.72495912794915
210.2557764210806 693.1522855702149 443.69911990986327
211.57052066565308 673.7810795336233 431.29926601201777
232.95549142544579 694.836738269049 444.77736807489333
254.00274490122345 734.4213766916492 470.11619995309934
292.97526170120835 822.0129170310203 526.1851045346617
296.06566750505476 806.8528427415138 516.4808710493912
324.5603959943963 859.9131027547866 550.4456882478377
328.3299868568919 846.4374811641142 541.8197029275973
347.5571627333469 872.546497996042 558.532549485563
332.87447261365975 814.4328798862671 521.3329877920264
310.60364645062504 741.1591874869855 474.4291926132195
324.0407247126917 754.634809077658 483.0551779334599
381.79493424169254 868.3353662489569 555.8369290729879
388.41928857794 863.2820081524548 552.6021845778978
404.98274480918855 880.1265351407953 563.3846662281982
464.63394081671 987.931507866175 632.392548790121
367.41050062057724 764.7415252706624 489.52466692364015
534.179422295064 1088.9986697962186 697.0874386919237
513.4974678354514 1025.8316935899413 656.653132503297
365.0982664927675 663.6743633406188 424.8297770218375
600.1540988308235 1053.6251631207033 674.4442272262928
-2151.9104404482596 4024.431390488605 2566.2192001561275
-595.6938101754189 3333.878424050271 2125.881147583769
-139.24322716167984 3885.308997982713 2477.506405681843
-10.9201507443162 4008.411236200048 2556.0037874590885
119.41443806141056 3929.1536307724487 2505.4643772737386
181.34559180388567 3456.980662267605 2204.3785293610144
248.10179150866568 3908.0744803927682 2492.023044777635
309.3282359758908 4151.749458781876 2647.404848432594
511.42679656519994 3949.389615136942 2518.368056469998
543.4974087550164 3589.3577266519987 2288.790097436546
608.3749063054897 3747.0297714920093 2389.331264507402
562.5341449930337 3246.1891584708 2069.965204399977
715.8998084385119 3475.530314601724 2216.206901957586
146.2891721647722 642.4925035726623 409.6918144812422
157.66817495052067 661.0421559067811 421.5201870778135
175.22705318656412 673.6896461345895 429.58498657547574
182.0189673695368 672.003314104215 428.50967997578744
217.1350942906062 742.8292593799415 473.6725571626961
220.73024401921464 728.4954371217588 464.5324510653455
232.7275727322184 741.9860933647543 473.1349038628519
273.33444327252306 816.1847027012298 520.4483942491371
235.0690540542286 680.4349742560872 433.88621297422895
289.9734659870566 814.4983706708553 519.3730876494488
278.7591149160328 760.5357456988731 484.9632764594232
290.86460561691734 771.496903896307 491.95276935739713
368.84035339445865 951.9344311463723 607.0105755240452
318.37041258102914 800.1645484126725 510.23298155209824
357.31510090277027 875.2063237643351 558.0841252382276
306.0151834916953 731.0249351673205 466.14541096487795
373.2254775708681 870.1473276732119 554.8582054391627
373.27768546617466 849.9113433087185 541.9545262429031
393.34558199405046 875.2063237643351 558.0841252382276
369.71630483058937 804.3803784886086 512.921248051319
388.0469934968432 808.5962085645448 515.6095145505398
439.71909602001296 879.4221538402713 560.7723917374483
595.1380739300502 1166.9417650191135 744.1121669843035
572.9125981356623 1061.546013120711 676.9055045037848
771.2645045817392 1311.1231536161283 836.050881257653
-540.6120539970293 3226.1620960801147 2049.2833210212684
-479.125938807803 3870.2127709385995 2458.389331994379
-459.1362081785175 4069.42110549509 2584.9280195299675
-311.20823629665756 3897.2240705394793 2475.5471201347978
-215.88092017733356 3732.6239635966162 2370.9918486541205
-95.92503003264048 3871.9009771636543 2459.461693753155
-57.52702067686931 4184.219128798831 2657.8486191267475
31.79632922059605 3828.007615312224 2431.5802880249744
160.64094192478967 3882.0302145139844 2465.895864305812
356.2380504979433 3694.6393235328787 2346.863709081657
385.92402632670854 3259.926220581215 2070.730556196792
465.7870867094669 3600.943878042326 2287.347631469579
550.4803753858178 3923.391267027832 2492.1687273958282
515.5373588331586 3408.4883683860553 2165.0983909690954
672.819027570917 3452.3817302374855 2192.979796697276
165.51136222484504 694.6968616101346 441.2768637363956
170.90623071540594 686.2558304848596 435.91505494251476
169.52504644957955 652.4917059837595 414.4678197669913
205.31374111068203 758.8486981622249 482.02661056989024
197.54386476208444 702.2937896228822 446.1024916508884
215.6563081773898 738.5902234615647 469.1582694645761
197.22656062827974 651.647602871232 413.9316388876032
196.49612106822528 627.1686126079344 398.3823933853486
214.91485405103646 663.4650464466171 421.4381711990364
239.45000815609458 715.7994394233222 454.6813857210978
240.60351753258092 697.2291709477171 442.88540637455986
274.36412827346766 771.5102448501374 490.06932376071154
297.9199409967357 813.7154004765125 516.8783677301159
292.4540296913267 776.5748635253024 493.2864090370401
340.7444540216301 880.3995463661852 559.2366572017747
297.90613948572593 749.5635639244223 476.12862089662127
300.17222349442744 736.0579141239823 467.54972682641187
354.0175652158828 846.635421865085 537.7894220262513
378.6502664890494 883.7759588162952 561.3813807193271
374.0183157944806 852.5441436527776 541.5426881819678
443.48227828210645 925.1370113301429 587.6542438093434
400.32471786845866 817.93591603915 519.5592721270563
509.2815608745692 1019.6765599332231 647.7065023008091
-531.9837611415037 3178.186558711857 2011.032371202236
-454.9457926713915 4036.744799512507 2554.2945060444245
-327.8572365923635 4110.263074069256 2600.8139998744155
-214.75806600182958 3717.3205721280133 2352.1753259555003
-190.6466152985937 4076.461568525923 2579.4257268491324
-91.97259256236164 3716.4755344894297 2351.640619129868
32.04172536673075 3861.82200832576 2443.610193138585
