# .PCD v.7 - Point Cloud Data file format
VERSION .7
FIELDS x y z
SIZE 4 4 4
TYPE F F F
WIDTH 852
HEIGHT 1
VIEWPOINT 0 0 0 1 0 0 0
POINTS 852
DATA ascii
3084.544594475014 -420.8706774038526 -3757.5030103649447
3250.1085697512003 2937.33923756824 -2652.8856370831422
3253.6391653106775 1584.6025505712491 -3604.0260482858735
3089.3338452904864 -3434.1622004025808 1355.5050650315197
16.41534412727692 3491.8134407662983 496.95864504385406
114.0731542881732 3439.7561031515124 -657.3294081599571
250.98379253136284 3458.1971030918053 -993.2153825668665
284.3035182874717 3487.3982613800863 -881.171020020037
306.21513944421105 3077.5954557963732 -612.7399207343307
385.2741836876285 2208.1305006302528 -2850.858763984352
422.57820741583805 -2754.9201994840623 -2379.078538946265
468.6209602969336 357.8489015841591 3721.8362623354365
497.20915198958426 2997.4507086662525 2160.628207053722
572.0140418660184 1855.0742314655308 -3246.354970694451
802.1233031749156 -3840.190593902956 -370.27044507935
880.754443629458 3294.6702542058415 -1468.195121927333
852.6392089400921 2801.067669802169 -1652.1270862706199
827.8529195056012 535.7496010915281 -3005.624954136871
1064.1313153382516 2255.7344770462287 3056.8060077579307
1011.6551634154633 -2243.4819553909388 -2288.845498463199
1351.7991936718443 -2756.014646870492 2694.011742037387
1369.8791058237484 371.98538882345014 3792.8021132800836
1599.2824544911605 3305.6631437234287 2509.0020287414154
1349.9193270250125 2921.082604021662 -1648.208852203514
1486.9403148273943 1361.6626578394541 -3351.9843087707904
1510.001806479098 -2545.6532820325697 2444.072496403657
1563.6216887409903 -953.8438914460976 3454.7413551163227
1668.7158274810326 -352.17047940202843 -3736.4401445008784
1839.8564151230569 3258.906688944441 -2300.3582748678914
1526.7215221797169 2692.5552491623966 -1823.636540050682
1687.1302794761798 -45.891896899383795 -3531.7018466737786
1807.3332898317008 3647.26921777709 -292.75971897734547
1838.3751836032052 3649.5447179059342 301.7736767925519
1972.3346946238664 3852.5514921139934 333.9700594518056
2078.8423886143714 3629.4246415699085 1712.1465390454005
2176.44955889344 4132.544404840492 212.41643538471425
1830.6076736580524 2051.442115066177 2747.658320922165
1902.9495910592016 -3134.8502816533774 -1471.4220032396356
2285.5229143389984 2710.6819594478557 2857.958067348773
2431.079803481669 77.10519920377938 -4135.281222390534
2167.4669571269824 3563.4870615064156 482.46861294427504
2187.9805577499455 3578.720834171962 -228.37073162630858
2318.070940353178 3751.411320490145 -139.3883226758501
2443.4252841023135 3731.793235047718 1009.7897062517955
2393.8614030120543 3646.361362983046 853.858191120999
2525.9200414963457 3895.2134107310417 315.8741598501614
2626.0974074362334 3497.2221585519005 1980.353042700615
2685.343445179966 4000.7581541615637 -725.4586079920459
2939.958409865034 3336.2424293849344 2806.9710458734185
2513.4321713988675 3305.8703125153884 -1639.3051811146718
2605.200201492429 3298.865826569556 -1859.7992521483493
2700.8317443445812 3363.2520157287477 -1950.6613951930551
2545.806475562889 3324.4966650174547 -1457.6082890433295
2788.532561197191 3492.3365104785585 -1821.8964563274296
2677.129130584114 3681.042062574734 -699.9559511537498
2746.836243230811 3771.9507151410435 537.110605505951
2736.3796395978093 3593.852876390209 1112.144551244045
2950.469757721367 3986.770538038443 -42.774724179854864
3041.7192415662953 3182.054721090935 2547.214901020896
2279.3333179633514 2240.3466613118917 -2002.7161149670367
3130.5479321023627 -2877.115334345169 -2781.764072108899
3436.5438196819546 1331.5920463191121 4169.531343230277
3320.8716321208717 -2861.972720855381 3052.0432737888314
3308.4484459739883 1154.5549489075045 3974.7105391403275
2840.620015329807 -1496.597982083625 3143.965406938063
3104.740441182691 -3031.0011666410883 -1774.0281643255726
17.192594614732336 3656.2333969733727 526.8712811081601
51.953273041959555 3703.0929352083085 364.6144720253372
201.36954382080995 3871.4734497880672 704.2146885617201
250.69965613744242 3689.260355487395 1891.7383617797198
235.37833679735633 2941.9348191379854 462.0644110332975
304.0683156495097 1276.9968344799001 -2842.3115741818865
478.14628604782075 -2332.958981340449 3018.5306676233945
606.0860228850377 -2114.0031631411744 2835.7291172164364
667.2474202696501 -3002.7815857703727 1832.9284623679032
695.9911104947466 1765.198796853832 3023.420944490824
744.3238531275784 -3573.3981939809355 217.31393709053796
876.8449397595581 3724.9815242614236 173.07121052053316
986.2398663208709 3943.287760363507 874.0724449193872
964.1672001430851 3144.704155646357 2147.4868505908325
919.7763193458891 2376.2346887159306 -2420.5728049664413
1070.853913803142 -2047.143502309948 -3228.704458594834
1152.7407924019224 -3142.1676738312426 1446.189237109016
1269.920792168208 2589.3529073494847 2661.1314362881008
1239.9092240866553 -678.4284088500651 -3469.2880961466963
1337.1687939292426 1402.9920271775204 -3445.2885759651995
1373.1045815138489 -2869.8271856357537 2382.6438937839553
1400.4289331478801 1085.6734504107653 3554.9123982277233
1430.1053466546257 -1181.6532417498165 3517.8426082276833
1512.3429909196614 -1812.0744418094282 -3384.421252938388
1469.8584920379685 -3651.189088310003 76.9561005116919
1441.3210846046632 3493.012941255332 -312.90508500625947
1509.1460389492145 3465.6901233726117 -654.7678739504032
1548.7882240598535 3452.9089134813075 -824.5726379169602
1621.5844984874304 3527.4783246589927 -926.0160198727581
1807.5701406034746 3887.648684987477 -494.7208325057068
1897.305059478875 3481.862776807933 1911.3910127128224
1633.9596946606357 3237.931214123521 -677.2484423050248
1845.4033792805524 2966.1254408492605 -2171.422545048932
1929.4911170835496 1694.6131570178557 -3382.214547905259
2054.495119173834 -3899.1000993131865 725.3788083035639
2222.208648217686 3662.2707576363778 -2106.750554233099
1861.5715829821022 3466.4260607026113 378.23189405677795
2024.5333293528636 3534.71986869046 -839.3118907086308
2154.219184059288 3788.2779929911667 -433.49607589783284
2076.3307137697648 3431.9828522984876 1170.2007099336151
2341.224919867443 3862.749267033364 -1166.3589070407133
2076.6452963493075 3167.971279516025 1563.98432606008
2456.167988334884 3007.5829730351006 -2824.592122822222
2231.3578073648746 1893.2677178381527 -3181.2483946702296
2282.5530581546423 -3691.544347971925 -606.2848562817113
2303.8685877617754 3683.478627849997 -593.5875657157106
2381.0690289270324 3770.6218984629522 553.2915134281756
2442.161225496984 3693.933178010303 1133.7343941129695
2420.069231456245 3735.2342946035556 617.9164704209448
2527.2127334316046 3801.5928193014206 914.3260010717602
2666.60948488362 3830.9904998503503 1406.4397569950738
2575.050194972131 3586.409381722192 1529.6629519914009
2517.519052978378 3694.9602839018517 -87.66128214865839
2537.0948885936305 3637.4634830878676 608.4434313905266
2483.403674390915 3567.360545381701 233.58882519070335
2688.7145639570786 3791.8390450086026 -216.2421252860981
2811.4499943550813 3716.4844053782826 1293.0462731782006
2858.5841743858705 3883.3404238555513 800.5574010958775
2762.5650906944393 3342.982576576788 1802.5735748379375
2690.5874131320475 3304.201077450872 -1590.3283433846282
3047.4127068714793 3581.2937425418045 -2032.7958898106112
2847.138015261421 3781.9834402046686 -123.52027371107779
3402.7700010899416 4044.069450424803 1329.4928657728217
3540.2407135987582 3110.444766349658 3046.711235986768
3558.525131208678 2864.2841156752634 -3289.8207405100925
3010.677999825344 1017.5760060729984 -3451.1075138083606
3102.1248987235235 -750.8984389896605 3607.6829869492262
3275.81128535528 958.2004178563637 -3598.61472781123
13.888116494412909 2952.744954581805 430.75890378690406
28.008639355734758 1284.7087364804872 -2720.956534458188
45.6144431679876 -2032.4553137311116 2557.8143790521954
315.4855149213302 -2970.5515076264796 1275.9752115688018
420.8368137039596 1648.8237776508915 3228.3130502249996
589.030216719421 -3506.3054251803005 947.2308405827979
584.1524602813382 3363.5208214223258 554.9853005787488
669.9065480248281 3399.378377107678 -1488.5387631005015
681.2827554316609 3374.0410234908372 -1232.197699965758
728.1963546821643 3381.8198053524625 -1407.4316339083161
800.2520979575557 3573.2922277135813 -1430.518666554796
828.9688916946609 3815.8506048752106 -178.0004530148437
848.6278861872473 3355.909637518234 1327.6865235484759
872.257354121042 3137.080725052015 -1423.6395346108939
1038.544605865199 2646.469732491149 -2768.5913304437377
1100.8254986257775 -366.6378838133756 -3912.8604194569543
1162.7385442874552 2798.7124810846262 -2083.3457342028323
1226.2298861122904 599.3358365150688 -3444.243393703294
1299.785580335522 1811.628824519887 3129.4499520153204
1405.326855163194 -3729.231771708302 -75.69935852672486
1427.793131057771 3611.155335354629 -828.6025247003511
1430.7970156343345 3631.3116297040756 70.70960313796303
1471.065933296488 3649.5434847059414 199.6430645938256
1537.0087079895393 3509.83745515358 304.2532471495474
1651.3750554928206 3668.109523662778 -582.0382482401226
1807.1089081103378 3890.3501116573657 464.65041561105124
1859.1073886321276 3462.320252340005 1921.9621406875435
1677.9205207866323 3299.395546233018 -808.4540985719119
1720.4018990191655 2966.059715003771 -1716.630061204728
1918.7802226984704 1684.820263275827 -3363.6326613432648
2059.6753892675656 -3895.9317681752964 793.9090991558851
2165.930228014303 3580.82232353443 -2033.626191628512
1950.7262874151425 3651.9533446678097 -122.28151278749297
1938.7736846019257 3564.2966642533593 324.0837687888324
2084.2875538225676 3785.6381895099735 -236.20435669912658
2032.8922613485402 3458.1932356018024 1161.3800175816432
2232.084148448578 3779.2202495049787 -954.9336656184703
2406.7908222082165 3946.72320816623 1276.4324965003273
2048.431604239269 2866.130075500537 1982.554763508763
2170.428619842217 1042.4129945910886 -3493.807543169434
2300.0706085641173 -938.7593138044018 3698.7277475836863
2328.9240906111386 -258.01462211021874 -3808.269614244417
2306.956055716428 3363.5494321013907 -1626.1092269003368
2355.45269983073 3453.499512481117 -1512.0321151657745
2286.0499877387656 3499.4063198093477 -914.7920030686747
2307.455104437552 3515.119445996112 -623.5665805509349
2542.0282637721807 3806.8405792553554 -568.1248138699381
2809.198450136185 3783.333247449833 1428.399642516303
2916.8069233790784 3947.900350711571 1308.1910490641096
2772.2501928530596 3216.0089524605564 2234.35503394012
3072.946995100687 3370.70730259562 -2671.5039360308942
3080.713719938312 3834.0667999273196 -1621.8818618182647
2597.965561587824 3181.6947344189794 1377.282693193573
2835.0993767190894 2807.6150717558708 -2512.9905707839966
3156.5747555330463 737.3625942419295 -3879.548608358041
3126.9662604133114 1073.4670803174724 3679.6137606377492
3266.5315539338744 -1186.0530505737963 3797.072841179715
3432.9736074931557 -1988.8236607918957 -3646.957148949563
3355.514205240696 -3771.4934342148836 1289.9741375988992
3299.590142870167 3701.7597570035714 -1142.3006178011365
34.207959332776745 3635.575823638982 536.8551299668627
45.68425406968333 3265.694661202172 203.03295248710393
217.44234526537454 3001.057566049848 -1981.1283363919067
260.8194553292845 1875.4736427808014 -3234.612745791142
328.85392429599983 -3895.9529225039882 -516.1887500058792
325.7933291202898 3207.716502530683 -1821.8879876085473
352.4694339300479 2797.9695848683846 -2284.274546141825
374.91045772598125 597.0815766240239 -3457.8280163790923
436.41031927090745 1756.3371309668073 3006.5934015738285
459.80072323366966 -3407.0829141908166 260.144221210104
597.8686481980209 3688.560998183383 1291.116479129751
546.111437640547 3149.0049533854985 490.64936925832643
627.2277483887814 2334.337535561466 -2342.459662420854
638.2888908105211 -1828.9580971523815 -2465.727535406282
761.8604464523917 -3235.8626968742537 163.68447384429473
853.2677165131819 2712.0127836256224 2000.4716097588594
910.845206598364 72.83146027988619 -3473.2364702671052
1029.0539893625144 3764.3810924192585 481.1028902806441
1056.5683920652502 3617.8231516245114 1067.398540175922
1065.0821717403778 3683.217226318869 114.61179584988452
1054.077334314149 3500.7483554631044 512.0595197068119
1148.6702471716455 3687.9662455871744 -645.3223778931291
1190.6281673644705 3727.6314445836106 576.8429711381631
1334.963085395703 3711.9600722101163 840.8260357040981
1193.0277492073 3255.8350774754613 644.4369234303354
1256.409098312806 2815.5572226409695 -1929.0429041455427
1313.019863336121 698.1181726742772 -3414.360264673593
1378.0087997491469 1207.175986149412 3283.0976437602635
1475.8956983305668 -1873.1292715486059 3152.503089937865
1705.9725708223755 -3954.568740653984 507.498842799035
1494.4188372405413 2737.7105382479485 -1949.6825405091276
1620.309748389897 231.04929549850115 -3505.3937329563487
1869.1225321603317 3599.1294205849663 1535.5248008025553
1832.0534589016804 3770.9956469066915 -5.7298351444970885
1603.3352989324135 3102.5113774943006 954.4313241498412
1935.765895132157 2491.5125060414994 -2942.974928917813
1822.4190189746719 -1252.064004635451 -3287.652616730703
1785.6564167335014 -1957.29760551802 -2773.988299080121
1985.9610807838887 -3580.689948361409 1008.4936755892779
1981.568633214262 3655.922724003445 123.26003454174025
2070.0003203927267 3749.0711598978473 367.0891417928471
2069.671562129517 3589.002123446352 955.4369460605843
2128.280794565993 3667.324293007471 -70.40262720418515
2194.835524234299 3661.5761257573163 432.23752183729135
2332.618777553232 3847.6723827167857 415.11111196706776
2430.81833298265 3617.540416558514 1669.0288597162275
2644.410602349736 4182.039520513011 128.06814150016262
2359.1627818479174 1923.1746770098084 3102.240990269489
2520.2337891802135 -3728.1579035529057 -814.0605912191071
2720.987433595696 3975.4348356374785 -904.3488638794281
2829.484346881002 3293.669644857367 2531.2953740219937
2654.0434056925774 3319.609856265321 -1965.7961242677568
2870.3283867365767 3647.017702918355 -1942.3403086483388
2988.341981370102 4246.661115679411 349.2711963167039
661.6515231558153 401.79107772106437 848.6960173488183
2595.202530746674 2702.3788367004 2281.998602750184
2510.1563627265805 14.083045861712558 -3391.970764587935
2611.1323911286718 3497.9430851401617 85.99519242451002
2789.20206727645 3648.347891858437 -656.8155448617969
2767.8160656400228 3636.016374728123 307.5482445226365
2998.8375408833717 3884.3130412290852 244.49171302449605
3015.1321648952544 3294.1896189504746 1783.4883667685997
3130.2294654854877 3303.3133807202817 -1952.0987958488026
3314.9793572727626 3507.758895433401 -1998.248365821388
3604.870215668066 4305.594535585413 -699.2136262524008
3240.8667316562764 1297.0328125846875 3674.8217484768775
3516.3027685123902 -2668.3172187063915 3213.6291354720734
3516.8128228113437 -229.53094702758722 4146.652209235375
51.5344076317852 3650.457551668835 545.5645364793928
106.38575725447562 3253.3435307058116 287.24879671574456
165.30443423859384 2922.2899814846055 -2020.898380452294
171.02338384984674 1264.3097932283597 -3093.620006844225
199.785736584204 -1962.0936121022748 2658.3086083725207
253.28575616491898 -3486.660815493338 1013.586383937419
271.40600297114906 3576.8584872635906 716.9291192931263
281.3790728672225 3557.0966513781445 -143.74773999750906
321.64253311360676 3631.7942688142725 -272.45988513504864
342.6135610543738 3505.5956706732827 194.730567083691
417.47011919432794 3547.298145128265 -589.8235919065735
516.9898679144744 3825.7584423957246 -352.8970677659966
525.805265955885 3376.7719636233755 1403.9444809846057
603.626229798922 3443.0681914832985 -1413.7062738758461
610.1985658732312 3428.259970105833 -963.200175129736
691.9298837453964 3662.0958687678494 -1131.7874570578392
645.7737116799606 3087.7767231885887 335.9626582445436
750.3384829103647 1998.523499037203 -2487.6464426835446
943.5452000488724 -2978.7879732308943 -1075.5050955411516
1161.862774048884 1770.8115725658613 3347.4759707079033
1148.646845450506 -3634.27899714202 185.30291668613822
1037.6891148500788 3028.5716607101645 -181.41029723606127
1118.5489435961367 1730.1811208237134 -2678.841967930396
1416.6081228158994 -3911.7760143512096 479.0505333955552
1152.5979744557267 2678.779357809088 -1620.8954784858677
1310.3825207124905 -128.78526427273596 -3475.6148169361636
1371.914587467116 3470.447475267761 -793.4697986739152
1370.9178453765098 3391.418174736329 -780.1812379621188
1378.4954368099786 3200.54122635293 -1219.4920493448421
1507.4895176304262 2812.0769321685743 -2355.0896644428176
1568.3313362662561 726.7347142090133 -3667.693778815721
1741.1869865416552 1188.5872757885688 3809.900430173144
1543.2124364752442 -1644.3940902011148 2983.892939787158
1603.7053786369688 -3349.5585851066385 -932.7305532351858
1572.2602637699483 3034.133473327365 1417.6865189577068
1647.9613432029503 1899.8294643196639 -2879.7826318149187
1773.268396974578 -3594.736788797859 -632.7459357935521
1914.0247330138948 3874.8365085717182 35.59539070911891
1843.8973373496922 3258.4746058253795 1695.0729315257024
1840.0319372933584 2939.4429961038845 -1994.0859742387786
303.2834120510228 235.79788731448204 -530.9993939149336
1918.1607965743312 3292.998501708438 1437.292547725056
2141.3725552476703 3398.990752055775 -2018.185042913389
2142.5355054980732 3661.5068610357466 -1339.988248675396
2254.6825903004915 4022.7094020218283 433.503248990347
1973.994709966733 2585.4633716069843 2350.194705567742
2022.6790757516499 -692.2337359825196 -3416.5784719171434
2073.1185848355526 1251.117100356664 -3297.6408235578256
2186.5014593199294 -2112.6084176303802 3004.6322027425017
2253.0565866909515 -3195.293576126488 1939.7791014352122
2289.264654957556 2854.2913566618736 2435.266895287931
551.5792288871395 236.249148562467 -855.9966938040762
2276.2457826771497 3262.5474359668947 1427.0617464096779
2792.214580159727 3592.147417399425 -2399.7660160254454
2415.0425523474296 3695.652883761598 -50.65335867033084
2965.369421755545 4427.575036019918 746.1094426511569
2404.6401087184922 454.2267963222095 3574.2533510514977
2625.140267905484 2705.01142633839 2745.2193324721347
2540.5345508612463 32.30074125946513 -3692.858738445608
2695.9691357513684 3874.834357571196 218.67716246973816
2926.6254607503956 3702.0531134016096 1925.8067778345385
2998.787491554024 4168.983040024558 750.5174295028684
3102.2403749656323 2371.2823826721865 3637.3044774432233
3036.6599098394163 -2286.1075491804 -3537.6060088116633
3094.9748448933224 -2813.2828231848493 3192.2507352607945
2565.725545586115 689.8627603564266 3443.578570596787
2539.757263230432 1230.686227932335 3203.753331387684
2634.204596043931 -1910.2965441542258 2933.8998131143503
2331.670755214423 -3017.2179803670856 588.1085435100953
2780.7822931778232 1897.595244935814 3069.855580706849
3178.4943927098507 -3766.687610233678 -647.8799633513191
3164.6426335017927 3623.076684033728 -1084.8222626823099
3168.629068872549 3760.9474523500858 151.55942947042132
3370.5929023126646 3780.7660359227757 1090.8864201248357
45.68425406968333 3235.210878785803 489.2796437478176
68.97142777846615 2979.100588636618 -2202.7221074808676
188.90152575334542 1462.2974187852858 -2760.6271495828423
256.0865719353373 -2693.3249310142555 1800.9999489108973
308.26438033915315 -36.80212767187411 3158.785621627214
408.61818063533434 3378.0196058226575 -217.27526936523964
429.0156584906135 3169.2992665621146 -1293.2405650028315
586.85366798557 2802.2711282121186 -2619.5748746674103
663.9494162315597 653.0305540340886 -3619.5628320969827
725.6647612142358 1598.5740605054143 3476.0375390779705
870.6519211568708 -3615.4671189720148 1326.1216051449426
768.953725534283 3035.8934730153433 -81.97451129978661
875.5771624905294 1786.4012367457615 -2689.8348687890143
946.8224331402956 -3177.1049298555363 75.4205853043442
1025.859370078083 2404.2015925386204 2186.8504069631194
1161.2701613582549 -1766.7229156801166 -3112.544158596107
1145.7423660820496 -3432.2030565780647 -199.5649729190794
1240.1650396988748 3471.611702246021 1046.7990202653434
1344.4333963010324 3737.1711107222422 -851.7282953988785
1326.025720646499 3583.7836193231724 874.766237271937
1402.6895125395636 3721.508934760005 -105.35771685762023
1438.06253889695 3492.9528502039675 752.0700673820097
1392.580913721308 3262.2237476572454 -616.6816198178102
295.97873792935786 569.3731280305582 -380.84017786559446
1553.1510077895996 1942.1804160053314 2983.5440723551174
1646.4840685217864 -3589.56991928229 -909.5035978948822
1692.687078106248 3736.380828179027 68.02431047947303
1576.9549793978072 3264.2912948422304 792.0122110278576
1908.5913724814682 3219.494383917325 -2136.6684141262544
1860.1253248754178 2871.892682173608 -2247.852624634827
2067.9638214175357 1179.7522330680845 -3813.6922619124457
2149.6252651516406 -1917.1696103214854 3609.4362004695085
2106.8174219234706 -3754.1099353248587 778.597838100765
2177.382831199711 3715.4272461266037 -1024.166187071259
2208.932656737387 3730.006342997928 761.7753482459393
2499.028893608784 4090.3950772385224 944.3898094022725
2321.714120045356 2435.980957217599 2806.1811730665627
2289.8421635547547 -1611.0211093153628 -3245.1101653626947
2436.6888299818293 -3606.522877788317 -1234.6403249487175
2520.749273755309 3899.747266309399 -44.398861611199955
2593.5424764441036 3401.7475365031896 1961.9996681688
2660.921485834202 3750.6961670657056 -1352.2008957098885
596.3929127062943 858.4278568901 231.1333262752692
2816.561072937213 302.8050614871872 4166.009852933348
2738.210658271937 3471.5399712102726 2027.0200364795066
2536.406956140107 3594.7186608105594 -819.7357803709306
2518.831251284324 3625.845958554467 -33.42281906481834
2652.122586796966 3708.2238925131282 167.39045072758603
2712.951386687019 3696.0711068642145 706.5602401802271
2662.9149017989316 3609.655692869733 610.9883623549059
2586.3786815239973 3494.503717995653 58.89622156437055
2811.127670014778 3703.3252341983884 -689.6892124351741
2808.764854907739 3672.4633724791533 669.5534166883496
3047.4824907135862 3954.1638785264354 502.77631383825025
3100.545288929776 3279.407390754686 2331.9655154962184
3085.4660092144854 3367.963204056719 -2109.3837621732087
3305.7911921088503 3828.09330827923 -1641.0139009489783
3315.6424628896116 3823.626528708887 1608.037365534031
3450.579709264804 3964.5928658403554 1631.0648080710216
3558.525131208678 3508.2664317502004 2592.124735396566
3417.623008414476 4108.770121288724 -663.5149511541107
3651.150071715157 2787.7010845659493 3427.4548375011204
3084.9383851436855 555.4491242442414 -3600.4062646285215
3080.1294570742843 2023.157958266238 2948.6620484389164
3245.023585304948 -3412.7126079097516 -1400.754673671954
203.53474253705528 3327.270422998029 509.1439209521399
256.3550410096605 3266.4635012777676 -1683.9956041570265
280.98387754016176 2969.466288761244 -1954.5574844221194
324.46860699049734 1664.9110475799675 -3275.11025824264
345.93137964618484 -3446.9228459426367 828.0989639642809
394.0352716139695 3557.1566815281867 973.6428210896324
468.8716267640622 3730.5461495490817 -279.4752691822999
500.70778201711585 3624.8314857496703 840.4984829955606
518.041119288776 3599.6168096406122 156.101965883652
620.8226352593981 3622.999189744093 -2.4230381022213545
813.083016830481 4086.705308133398 164.1332521895259
846.7635118828708 2576.8339041413096 2930.1076824014262
962.3103028399485 -840.6689566248538 -3850.2930674647714
1042.4580533536484 361.6819681390263 -3480.2567655164585
1118.0288888666369 2859.414150846213 2090.338420911894
1187.5520510117947 1005.2348190165367 -3519.2474989174593
1130.7457382537505 -619.692375956235 3335.930208979456
1283.9436180445603 1764.17561079593 -3313.638546111028
1340.925873743503 -3815.529578003414 238.87871269975346
1313.0853774794418 3397.576460661206 -1341.96989309033
1373.6787436796262 3420.8139853538746 -1261.4862970351053
1411.6076218797882 3485.3246037350045 -1126.9788847176487
1522.585480569026 3787.8449272216667 -768.4112227974571
1401.3894074526777 3163.0464715567964 1075.8336389851822
1507.434503889448 2547.2106622161623 -2433.7721426403705
1545.7342754490314 -933.6456506610224 -3417.7704427011704
1571.3407232395336 -207.40690690238415 -3527.9084986673315
1691.3282177277845 3492.0097728575165 -1322.3553782049657
1797.423025754463 3827.9858708738443 -730.159689650295
1865.210518948344 3662.6002666341724 1539.509105803304
1625.0911747616337 3325.054673115088 364.74158084253685
1859.1971858230452 3338.8746074169544 -1737.7031840755424
1874.520189943847 3352.875373296951 -1643.4666808727322
1863.1855804140118 3318.448264783306 -1527.1902677651742
308.93826059653327 529.8854078964756 -283.5885302659218
2006.8366343115063 2332.050138791258 3093.4476155518896
1988.3112907049317 -2137.0661781331314 -2857.196554365739
2136.14023994969 -3145.3762056594173 2098.2300934052887
2173.1039875224096 2661.727367253617 2705.038340285241
2160.1934018999978 -248.50533806242552 -3714.6970397267232
2498.675107495303 3857.38790777298 -1786.4936408973847
2518.6734751926547 3811.2137869732405 1837.392301601673
2574.921813361087 3985.003386403824 1539.3933903814375
2529.253748451416 3205.5479399820365 2549.838897749605
2401.6870499069832 2968.4618635263105 -2442.246950001147
2448.4815185236325 1749.4864334091828 -3456.468315971841
2474.4025343283474 -3855.9657192072236 340.83628371803195
2510.407738273236 3502.8179363852782 -1678.0114733033208
2613.6824159604216 3942.5995199191284 -675.2103565063679
600.4180617234346 739.7103223166202 503.83890189051664
2578.141129741115 1045.1267589210927 3637.8475858379625
2560.48459201342 -932.7115643409237 3603.2392562449563
2782.801432058743 -228.58812562855138 -3999.4728988732536
2933.6387017299076 3854.4876422564016 -1624.9350804548128
3051.1742418786225 3891.800271726237 1852.023392128617
3040.0812518375783 3715.00683447326 2074.5479555356073
3082.080036695989 4189.167945400309 852.3478897906404
2507.1962726761953 1749.1644922160144 2901.545722398786
2900.555942726075 -3808.9584692253284 338.8382795916687
2789.065761696729 3408.072243754022 -1301.133191242705
2785.405372634478 3414.0704527099474 -1188.42246021055
2979.873815642978 3637.6856574344984 -1223.7185369582908
3070.089896051789 3887.575593711723 256.070309049967
3158.9553288339075 3489.1198877646893 1914.7956571929342
3027.205571855593 3690.7931365806203 -723.3028570172996
3110.650235052428 3765.2263302213214 601.6973343867156
3145.3773592005177 3648.840623615923 1082.403854136782
3216.749427263658 3853.9553599993387 329.3206387889628
3549.9757660562004 3809.505846277882 1808.5226587396235
3370.5929023126646 3674.8538351679836 1407.008987231838
169.07298452661132 3591.2219381767727 555.9505290561945
196.52047333494642 3249.6185857838827 -49.79002839883896
262.96297062619357 2724.047912343921 -1910.102607520006
317.4917371069238 150.84333495270323 -3591.8339728195047
326.12205099507753 3226.8474634130444 869.723776761795
394.0352716139695 2933.1111076140637 -2235.6661715003424
424.08741529946604 1445.578309584791 -3354.804368492741
435.1569869352644 -2828.642672814345 2013.3466242884554
474.7371821973622 785.4815380692152 3439.4480303316723
577.5155841789257 707.0162300646712 3490.1073121646477
623.5643305848606 1202.644586419674 3434.5257312699596
695.6974239764288 -1848.6424750819247 3168.0822273613694
906.149082425539 -3697.6344707890903 314.67494408084707
928.7198766084128 3614.8737381396136 -622.0223929317458
1055.5303795511106 3342.873303665641 86.7990532181311
1206.9890857962848 3179.5623218006717 -1531.086033436894
1325.4927744903734 2806.4118635097 -2530.7890967743656
1310.9286536182656 673.447265555524 -3584.2820453356885
1356.7243982420007 1387.0539502576873 3323.143442446405
1450.144548494033 -2827.2407787160705 2483.3200718322532
1418.584816437015 793.142366431302 3512.566894248671
1425.18316547274 656.5809084362461 3479.595164768027
1375.9746196910216 1379.981642847919 3050.369594885636
1442.076259449957 -2554.858203257294 2300.5528816458254
1593.867024407662 -933.5579932433386 3606.119032041437
1548.351945686879 -207.74521003162894 -3542.9144680204904
1618.027417053951 3402.404946752281 -1290.7213403037883
1694.4988919441996 3520.7297037216404 -1264.7305457417128
1791.8882358368203 3847.8769319579465 -535.7873799427359
1745.495270437942 3375.4515638698417 1558.7978508994165
1761.1691224316746 3407.4547900250723 -1408.2687435057235
1632.3785791327623 3172.05168936611 -1108.0108663680187
1630.008159727962 2421.510819053331 -2241.9378566783835
1823.9123010020548 -1670.4987528666309 -3161.8364784838304
303.2838165589927 -574.9936525416905 -132.2206471651297
1832.2615321527614 1900.4617623241106 -2983.0544899387833
2061.788852310847 -3859.8965427533303 -683.811874159032
2085.3865717787094 3411.2237446318654 -1663.0025748806752
1973.822475245759 3351.482121383117 -1146.0068019210537
2044.6155853948503 3283.8732829577607 -1520.9658975388695
2138.746612225613 3180.7671859923853 -1957.7908745609384
2232.141825707572 2862.3223402922486 -2570.3151208098793
2094.278853918082 995.9700697420752 -3420.9666207342575
2360.9215321706615 -661.2005733446076 3910.4948282549567
2482.099257355093 1667.0549874722537 -3765.4815985135133
2504.6458978147034 -3994.9898851967496 943.9707713566468
2344.196683583932 2861.997228107705 -2359.1635946461647
2437.9672606376434 1064.054359450843 -3662.565264965753
2497.4808189206447 -1091.3190664731735 3706.685675256552
2618.909780792342 -1313.5982230676734 -3786.624315713595
2454.850365404312 -2456.1404473229777 -2789.885858422183
2589.5097479399806 -1601.9789955681792 3533.8453981121424
2885.3399164707525 -4025.975670970653 -1449.607152559755
2893.5121582933307 3127.0625176681538 -2875.236339954493
2504.074130824516 2468.7930730719368 -2674.8197625918688
2722.5401482465936 -1524.3421826662313 -3570.196760704422
3492.921974345504 -4373.892870075271 -2283.2908621340184
2901.8414380587965 878.7609890382118 -3927.9007273790135
2469.4335131405005 125.82066287657887 3392.667705625368
2717.7354181186543 3615.048415829205 806.871087107943
2801.42640648672 3752.7052807382056 98.58537376094807
2998.8375408833717 3754.585243307722 1025.0627545354928
3123.674627297046 3820.596952950893 1056.5675194242676
3241.0759284507294 3658.0521939739 1482.3842774944474
3121.4110051761313 3757.6296513822763 382.0319398331939
3212.3381993689536 3694.629756306244 1042.8959506184992
3547.021615033965 4143.832997429629 690.6874035432951
17.02504361144853 3613.9571889844256 565.9305930834543
52.986474387056305 3793.8740711128676 92.43664066524396
183.91922248843483 3390.2045301127255 1193.0420126731308
294.2624405294015 3476.1959803293385 -1332.963055130243
435.407653402393 3393.2144626526265 -744.8299204818834
454.68734088573893 3161.312228957042 -1193.2082764742545
575.89380494787 2560.0184126925315 -2460.8751952659463
837.7789010514751 -829.9270392079396 -3329.1113092823352
962.0773529007117 432.8408636777549 -3521.4986563579287
1043.40330340484 2711.6629661637553 2553.9203115868713
965.0771699975908 67.9630420595433 -3338.3082579225684
1168.9192419134533 3783.227676901412 450.8750877206967
1301.716966377704 3279.8336805921936 1086.1473323877683
1377.6951264592528 3031.221887755698 -1895.3413590144605
1470.6634528769816 1996.6418501207868 -3060.2511861522485
297.2749951757638 -647.8765799839273 -231.51660223044456
1436.6646822053797 1402.7330049751622 -2979.2933921910667
1539.1358553398532 -2613.4079483565847 2171.7511126891654
1610.6238660340223 -525.7449398221863 3452.195860354879
1775.541450456239 2298.432682744794 -3003.453213035051
1914.0235078881801 -2584.0369847024886 -3062.4829569631356
1822.336919740176 -754.0060972066584 3674.4354403602174
1747.0723821084246 891.5328960082778 -3422.796823554547
1928.0965288867906 55.00128330874151 3721.5935913039175
1960.277309327175 3709.840831211592 357.22542893148585
2099.67380520855 3750.999863384622 728.0391643919618
2168.3433591449116 3705.4841957093745 999.815420639255
2114.696449517855 3630.5903411670565 676.0641793679622
2178.760737076146 3749.6494286961392 200.3850340687144
2381.705842289101 3914.572396766169 1046.339787294918
2189.1657364530593 3098.2044949311926 1895.403098970811
2307.573549307359 2393.1145129902334 -2870.2215816406087
2297.972156492686 -1877.1447409216812 -3162.911889640632
2392.2309105864606 -3750.7431778219852 508.0852428695754
2439.8849066213647 3685.654366622726 -992.6937542841864
2521.5546664282115 3775.4155836094355 568.6485479090087
2925.2116559847773 4179.184315076217 1321.025155180981
2938.6098050898668 2314.6472864927628 3692.502124458656
2522.6483070696427 -2284.527407067136 -2868.418296964219
2603.5795724803215 -2485.8144651693124 2805.036620929396
2832.6480316249335 -1474.9549885340841 3760.0570184238454
2847.9986021061945 -3392.793964541973 -2161.822868360764
2682.130439341544 3511.1794958133205 1328.2072685315773
2888.8642589569185 3958.9491973859526 -618.6842914743511
2768.3627787693526 3056.4832633804017 2212.1119005772493
3454.6041782515836 2501.414407624049 -3487.7198799976504
3154.377088317233 -1288.4797170910126 -3567.4457274981864
3165.855213746953 -2257.494716473356 -2802.948198789068
18.909992398391303 4012.9777278380448 635.593231458458
254.03155623462163 2414.6453808482074 2121.1514997162312
383.3388024415102 -1577.3739608590502 -2900.878382077372
521.2042901531538 -3354.782301342744 -1373.3392554636605
588.2193271038931 3299.857802567527 1505.3462999702795
664.3104545220607 3186.5167341194833 -1840.7908906707742
697.9734242729711 2762.602431962922 -2431.1371419384286
718.6540601081147 394.19618569040455 -3593.443246690719
737.2548556397746 2739.3424132885602 2251.692506262435
826.1477933721397 261.20405086171087 -3798.02862598657
822.4958943569711 3266.4541183407287 1601.6621031837192
869.0852500271726 3087.209310426422 -2032.1305749425692
889.7890747396023 2279.4230044599067 -2843.055885264828
917.9243144216674 -2345.24514961162 -2599.3895799250968
928.6486859969483 -1808.9651933646583 2538.37229917031
1155.7401179675821 -3467.575464228914 54.26232466114348
1237.8047105521375 3435.1619066458356 808.3957416571103
1268.1536303716043 3382.9990368532553 -1001.0502068577518
1240.5797425473647 3131.1746714508554 -1246.0518355448246
1309.2522310166487 2375.1497766630914 -2536.58994289918
1448.2177021633208 -2018.343330622341 -3169.992775974784
1398.167758718296 -3157.9511591258884 1265.2859268068462
1416.2952619568755 2372.7773936117683 2307.81876246055
1800.5208452662016 -2230.9209362409765 -3472.0484985440057
1546.8857883843625 -2540.5625589582414 2376.758903216637
1694.4988919441996 -1027.6280383132512 3597.0907154077254
1621.6934458693077 -776.7385052460328 -3429.130107544501
1882.580966771422 856.0398917979744 -3917.562469655144
1941.2506952976203 311.5040102409577 4052.04408312691
1817.964477117499 3202.4499173010304 1935.6855444980272
1856.555026747058 2798.3808043532854 -2327.8025848054767
354.6878532639068 117.89643059586798 -679.8532427316602
1894.424773277537 3579.853164175006 747.194969834647
1967.1148743986141 3737.6881199979525 -131.48200495190085
1982.7579177503665 3607.2744132974 883.9498329486241
2203.1272912199024 4066.6722150404817 51.63424655925824
2039.6828467865148 2444.3676243265695 2590.928582023071
2098.689104129007 -1560.7608955464996 -3262.9303435612733
2080.1720078630624 -3234.9461198133436 -1435.146195307152
2318.655917247788 3130.80458621079 2317.1291813279386
2531.524254708934 2868.7037558562065 -3067.660144334195
2481.4603815864552 1180.273660317361 -3891.9716194701446
2313.959487023668 -1701.0134895057163 3195.458200089556
2501.358894726422 -3812.388756283579 -665.2758607995228
2464.7025182506773 3515.7990517465305 -1366.4336894771723
2477.305278620278 3710.5681126194872 -549.258847549545
2792.3991714899175 4106.334523003612 802.4168400455562
2594.7155874221676 2440.706524736809 2974.904311084168
2659.197614401404 -1707.0727781486896 -3510.9996482631145
2856.2955470284037 -4097.510130455763 -670.4585973886793
3091.4366237689296 2848.0550171894506 -3364.3790837332817
2954.8958899307127 1066.6180919682795 -4035.4184226528414
2851.4604644145184 -1144.3075596260146 3823.43317046117
2627.1578137357155 -1507.1336890408418 -3317.7227194806596
2496.3463378787033 -2993.3335557198598 -1678.8621814197559
2583.4628529146275 1724.902889325415 3069.5522511266745
2497.575980012444 -3346.0516942959716 441.09302771530804
2705.730189321471 3197.0405479354195 1517.712994889611
3078.970918132054 3047.805546691629 -2584.356273727703
3064.502853137789 2251.5063492343643 -3241.8402427259343
3051.541100232713 -2751.1619251466905 -2765.6661153550613
3088.2141433847437 349.4799098905529 3903.3863237684905
3212.1337225605084 3317.21403447092 2318.253663754069
3112.611318826458 3429.2682053979534 -1844.8185752118557
3437.701408507109 4082.77938899667 -1253.9351900253764
3630.471296167605 2932.9369006759102 3289.305418572983
3083.2704719615526 1393.1504538388003 -3235.8400474944283
70.1093655550317 2975.077799740496 476.5302566377589
301.24181231480304 1575.43533901657 -3025.3800575428118
384.0353599262616 -3057.154467405966 1263.5943029389398
690.4247719932177 2027.398914156082 2819.819611762203
741.8289128377653 -3290.6564484766664 -1379.204168388036
804.593322023875 3248.325102909891 1946.7288012985905
833.80012600014 3014.836150230351 -2124.172071011253
921.2881940155102 1970.467029565562 -3217.5749696619455
858.7261803802436 -3301.29631292967 -1012.2507862367737
1040.8823289805064 3222.3458719902883 1850.714208425263
1019.4151478231514 2788.1811676916814 -2160.04045705849
928.3857286168267 463.880667144933 -2990.23255394111
979.4589616468589 2140.357413924882 2246.659551569127
1062.631958214106 -2713.9551124622385 -1833.0500941163825
1238.7969591255721 88.20967342751226 3620.9257177569675
1441.9438728658836 3870.6710175397698 600.6620297452173
1459.5547750344738 3299.206999406589 1685.8998116930227
1487.1651500767507 3197.4037758192753 -1851.9271298775882
1357.4803371682929 2520.5983972691447 -2134.57085140883
1403.0308652436843 -1010.0091953685167 -3119.5708719743875
1696.3107057821512 -714.6386866276772 -3676.182333287492
1801.112885699558 1241.4097170850393 -3702.421763430909
1593.8559556580992 -1905.379210504995 2809.9030346571326
1849.5432293923886 -3742.791443129218 696.2479538488482
1755.9633357069408 3445.1703189494397 -876.8275049459935
1874.520189943847 3598.4925822084747 -996.798442911396
1894.298178389718 3713.9871461371413 -9.77130124868995
2026.003633658312 3833.8579054843585 772.9518487946631
1970.4791261218638 3387.795758207971 1465.0327302378191
2042.7816609762115 3515.306718904978 -1364.9394389574645
2001.3116981338758 3602.283435647014 -536.3935581857266
1989.2488190592062 3520.9720380314466 14.03236974578594
2091.2189097317105 3617.3160589750805 -502.12401802840526
2152.6504219846875 3708.30580379345 112.10738402002687
2078.408652106185 3473.0135859951206 664.4340685826646
2160.836774555126 3497.3100276706627 -788.065714489742
2335.025542250151 3765.697750962634 -682.2385568076324
2303.8685877617754 3576.063317468871 1064.0169873895495
2632.402045599104 4161.365836203022 -173.95222701168862
2716.6651436051347 2368.1638717137143 3529.065014520122
2634.2255090513154 -2160.2873466979695 -3303.326744313473
2648.6597784288656 -3176.660447146739 2310.413903077429
2702.791017916181 2933.2730390037736 2672.252472850117
2809.516140188825 1617.195130654137 -3750.164784297958
2851.572610734184 -3897.830330096815 1287.6116331321937
2985.536684978297 3694.703870686122 -2114.5241327393232
2546.548034808431 3564.7439755262512 594.6397135655303
2951.35624463851 4161.109831544988 -256.3707663124636
2707.136983128692 2112.6933231023277 3145.3215928611885
2627.1578137357155 -3114.6608315947137 -1891.4607857763601
2516.816565339947 2252.062548282881 2548.5319850105116
2786.1924076408673 -2608.973622327096 -2627.8252677835007
2839.525833043216 -587.5678932289618 3667.227831870619
2835.4887334149043 1908.712779123114 -3146.3018810680132
3104.7338187192095 -3897.769872803774 -748.5659748233619
3051.9656487188345 3361.628413362093 -1923.4301158286617
3066.0915666546193 3533.4774459837836 -1561.1874130686285
3170.1634541514463 3939.299010020948 -459.4336836236272
3165.6473050008103 3263.293090704081 2195.314830306352
3271.514721517549 3359.744153072323 -2238.188603736588
3298.2845267025873 3692.729615205996 -1646.0853528844045
3200.0184679940444 3846.073493712332 627.9551584017896
3287.4380780696074 3593.999232579517 1646.018990236092
3360.44548285119 4015.77974384019 -42.060063751959795
3475.556689514259 3097.688555594643 2748.127837735715
3525.562842836938 2679.0300404452382 -3219.0281207830394
161.2491569452026 3110.466371244985 503.7856224169717
365.08094444276946 2243.852063281547 -2577.017058171549
389.8400056325231 -2399.8058072155095 -2348.8499500084545
426.3836605857631 -1701.9984651142834 2945.6417339433224
551.5419743524133 -3780.0229494644136 -652.9337650346737
525.3533617993868 3265.8855700662107 -1061.2951725289724
617.7357091091064 3179.516683005299 -2097.416187238713
613.4543290722179 2658.436821849096 -2397.7309407514595
682.9897556540677 -260.9926492738319 -3591.5294565164054
732.768704165563 3310.150448399359 -1621.573312854378
757.2143779582796 3185.82849847112 -1764.8401565947127
809.8722261268258 2798.675643573939 -2468.8537101387756
842.8435113146752 638.8725558692843 -3672.8498277709436
859.679565503069 1609.1478513524378 3282.8309722688787
925.1950615225995 -3580.7312458479014 1238.904655334112
925.4777219998904 3302.131766665283 111.0936342911469
1059.012504004544 3179.911303646556 -1820.1813373784657
998.3643717599531 2489.9311692740125 -2242.6421409305917
1030.244308227133 -1203.7761761486365 -3134.818482422382
1106.435107636672 -1724.4260461648487 -2941.845477129665
1129.7459630651972 -3360.553140771235 -445.8504099500054
1163.8945477372506 3110.129995169487 1381.1228812625786
1273.9321928946908 2383.428245889526 -2740.564503290513
1410.856859186096 -2059.9796614685297 -3340.974228325624
1441.9438728658836 -3520.637229771782 1716.9748094671834
1443.207901703469 3709.1312933337213 517.0783778234339
1386.5450452001098 3382.698400306265 652.2089638800118
1440.8179032026183 3190.9013826336454 -1271.7599483812548
1508.2902714193312 2663.9861935617164 -2308.419927247328
1656.2660424638548 -233.98426856466122 -3717.643926207062
1776.03051465202 3598.5586417291065 -1557.118075817234
1820.4846504113075 3946.9875107739576 -9.929239366454865
1700.9827081581757 2927.6991180340265 2027.1405659851962
1828.1668432370786 1456.3992619873131 -3469.7363285533397
1798.4423362331847 -3005.670956297739 2054.9508759258056
1936.1216707505034 1930.4444751697451 3268.48590761634
359.82825693439815 -681.9366852167191 -157.99480167281865
1932.2407449617756 1385.584725317511 -3463.099041172054
2134.372235376892 -3042.004869366501 2685.8090726539917
1923.8309322258922 1967.878514551051 2895.5923663334156
1969.9216403144433 -3384.34098671778 -1021.0098362024348
2009.0226641790791 3307.0636590807553 1307.0829946057004
2257.275793782133 3266.1030333105286 -1832.3744092842387
2346.618300364275 3211.205550841078 -2116.571498968898
2320.5409147169 2925.4841819342037 -2358.8357936178527
2355.45269983073 1445.65937952162 -3481.8054165046565
2370.210435879492 -3021.2163726209615 2149.7710645106004
2633.2850340801247 2142.825353425252 3413.0923668599926
2512.782989034561 -3160.4828561258732 -2154.523872259122
2664.2094092119974 2904.177301752103 2799.8053860916607
2867.8153059015713 1499.0603254372174 -4027.0370175477733
2505.0333698735326 -3214.233672513254 1862.7739794408656
2664.7095090807134 2998.8883155738167 2391.9792789058265
2543.001179171084 1806.903785635046 -3143.7198840637407
2680.2194152557922 -3785.725163322023 -45.61784508767568
2910.047224144408 3860.883452965425 -1297.2694256081802
2930.588401897813 3618.5135803686912 1771.7788994926418
2861.546471561218 3897.964212745689 125.99601642068413
2962.257496322467 3416.51479270107 1956.3730910168351
3029.5032518953826 3790.9419798933213 -1257.2966655020227
2896.359279594192 3552.1874987641945 1229.6523791801387
3298.730792022904 4202.325637945776 -351.49428539255564
3289.264400865659 2043.0180404073792 3572.0165574322286
3100.8606198358975 -3464.194602736018 -1564.2751530260407
3278.84879207088 3881.358952560991 937.6042242730377
2416.469626458832 2578.475623253327 1378.8544014102315
3512.093643819414 -878.2617047907104 -4078.509578007402
88.1660757012994 3739.1963094653925 612.3168781606354
277.7500732131503 3052.644296559962 756.5631491686164
487.3446589322302 1734.9392706850806 -2453.5710152825654
691.9040901488584 -3624.506337859434 413.34949717738164
675.5149367212651 3394.892302504849 -145.2936832533491
687.3560498435124 3096.420576783691 -1158.3676496132618
842.8435113146752 2378.4245179966792 -2870.7282720926873
845.5710387169137 -1913.9679984529878 -3044.3295650927585
889.5448955204091 -3571.1681015757486 719.8662308289394
864.9146942460028 3411.67588302289 171.8245302626594
1006.0053492845661 3511.3918499127835 -1197.5922830271081
1066.372181493215 3761.5651386321206 -586.4100168205833
1059.012504004544 3519.290894142715 1019.552648176723
1059.4400793728419 3520.7780565642165 -499.2573248495185
1256.9716887452541 4057.8988375612075 -564.6822328703121
1294.16105148312 2858.8958510525395 2938.8287654837222
1095.0870898620171 899.6555200174298 -3160.445529557845
1247.3052997135678 2.086271410671814 3469.999372834468
1325.6165142175255 3600.976127989628 13.112042130332224
1316.036043876461 3414.9950440276534 5.818012252132044
1392.978592313603 3353.2627396969947 -1122.018270154191
1475.4932179110604 3331.2931081354523 -1530.3732314991787
1610.276544510874 3424.498812802553 -1735.1452046194593
1403.0308652436843 3126.374182301995 -988.7494486650975
1425.3214445080398 2212.923846230771 -2403.384499155974
1618.4720522331359 -2734.9207337588787 -2402.042584979666
1633.22425819773 215.683908068703 3534.425193974292
1742.2089694984409 3451.1536758411426 1364.2064747420636
1763.079802249881 3567.1485371409863 -948.1204111150238
1840.2336638745564 3602.0709964080343 -206.75719294871078
1892.3526652400446 3652.97613658301 13.203997692589281
2095.976677668042 3967.9782498785335 367.9315269053335
1929.9057276972467 2894.72610757923 2165.3604231395752
1888.5613688898582 1129.7441885252683 -3195.1524327476745
2212.9942613071694 -1488.6808878092777 3511.4705202053715
2191.8512057986322 -3191.946681249406 -1927.930855622396
2270.4373988146504 2886.9472136835448 2492.4148501814097
2378.4273116860604 1264.794503801503 -3737.808296736673
2134.287783326634 -2079.681465462528 2812.637374815963
2296.4586646706093 -3284.6522553241152 1744.1389169427432
2334.414377516695 3112.683186337736 1910.0542875767587
2523.3346576258273 2575.024368545917 -2934.359470377599
2610.415312940471 -864.5103726025216 -3900.3393205800244
2741.676815602433 254.2912972200422 -4100.121941620535
2862.1793995170847 3794.898060097233 1804.3150261166309
3063.3632155388927 4197.846959204484 1485.6950922371884
2527.5720490161575 1813.7158189311526 3114.3620419210893
2770.010578936379 -3875.8891810317923 -92.80116572922634
2546.5351191472437 3102.912392822605 -1621.3992976647962
2706.2623285645946 2364.8837365854088 -2789.439712995037
2797.6951512836213 -2069.8460850891506 -3125.818002386114
2773.40135418964 -3284.699461181853 1672.5266663678767
3079.254703710279 3380.4834611892475 2074.002788962919
3152.043014426888 3709.998468422979 -1495.2964135244727
2965.2907307847936 3667.3610629042723 712.8526034838108
3600.739282051292 4354.730035927178 514.3455202426535
3475.2495734742547 1026.4215027384562 3961.1769587732542
296.55457342635356 3701.6187503493493 612.7990103305667
669.7260288795775 3651.802058647364 654.554600059364
634.8144160439224 3333.329681485311 302.19568913046066
676.3101279357693 3040.1285108937823 -1526.8341878706915
732.400526039131 1887.9035762559017 -2797.578432637801
834.9305491644569 -3649.6224415959164 -564.3625021202782
903.9514694528011 3688.1245866285144 -320.22028902967224
929.4794621127272 3627.664183197128 562.3998345916506
1073.1750620548232 3708.672859269538 179.20553260853447
