# .PCD v.7 - Point Cloud Data file format
VERSION .7
FIELDS x y z
SIZE 4 4 4
TYPE F F F
WIDTH 855
HEIGHT 1
VIEWPOINT 0 0 0 1 0 0 0
POINTS 855
DATA ascii
-498.0973219571498 2954.561556093026 989.9606109624555
-527.898611748778 3322.4594648748275 1113.229133765226
-491.6712453410973 3295.9101312513985 1104.3334671712116
-351.4286875050472 3188.7646062711315 1068.4330984167964
-305.0432015755635 3037.0541284229657 1017.6007178795716
-271.2246585375146 2991.540985068516 1002.3510037184041
-256.7549654624578 3174.541748972866 1063.6675627414315
-236.45624711472271 3326.2522268210314 1114.4999432786565
-160.5681470970715 3118.598510266355 1044.92312241833
-129.94321540252406 3117.650319779804 1044.6054200399724
-71.60394655150665 3246.6042259507444 1087.8129434966136
-39.00510722109295 3186.8682252980293 1067.7976936600812
23.54400739200916 3184.023653838376 1066.8445865250083
57.883756077873436 3363.231655796522 1126.890336034605
90.43209268642015 3346.1642270386033 1121.1716932241673
121.97394416207122 3311.081179036215 1109.416705224934
176.58852431220888 3128.0804151318653 1048.1001462019065
209.00386699670767 3154.6297487552943 1056.9958127959208
258.65032136707345 3401.1592752585634 1139.5984311689112
332.2781187397416 3475.118133209544 1164.3792166808084
368.83624577210804 3499.771085859871 1172.6394785181076
412.06761960654666 3578.470896243607 1199.008775921793
388.7787001507784 3239.018702058336 1085.2713244697522
451.82500690552814 3617.3467061921992 1212.034573434457
401.01605846828903 2978.2663182568017 997.9031704213969
511.86178548069887 3545.2842292143205 1187.889192679275
574.6648563521587 3508.3048002388305 1175.4987999233265
634.4449297006025 3463.739847370932 1160.5667881405166
1100.9617709912886 3696.994707062486 1238.7215732165
1470.9759824537862 2858.794316951371 957.8726707483322
-2017.7711297787114 3653.6113623254764 1217.0969612509007
-1743.490208931005 3419.2717086006273 1139.0333545438186
-1510.8634317171043 3301.6275099695295 1099.8435276949192
-1436.4875626862665 3201.060695010687 1066.3425466789247
-1085.7141659524063 2955.3361188376675 984.4863760832395
-1215.188872472296 3785.486714016788 1261.027492960554
-1124.7641914619585 3609.0204160701405 1202.2427526872048
-937.7688088032975 3423.0666827500177 1140.2975425066863
-947.4516791119169 3582.4555970244087 1193.3934369471308
-702.4701391013695 2978.1059637340095 992.0715038604459
-593.9941753392891 2740.9200793971177 913.0597561812132
-738.0056853662394 3563.4807262774575 1187.0724971327923
-568.4586573765528 3026.4918841387353 1008.1899003870093
-547.8365485857875 3074.877804543461 1024.3082969135728
-387.55090910589803 3232.369231743157 1076.7720973725834
-395.00459077284523 3586.250571173799 1194.6576249099985
-243.94789281244866 3017.953192302607 1005.345477470557
-220.81831971146852 3108.083828350626 1035.3699415886654
-197.6485056782334 3226.6767705190714 1074.8758154282816
-141.0879802271931 3387.01442833081 1128.287756859443
-104.91590379890461 3294.037561670749 1097.3151517691838
27.631606054767154 3738.998280686757 1245.5411904154244
51.22557381687192 2978.1059637340095 992.0715038604459
85.02512993299577 3147.9310569192235 1048.6439151987765
118.3412722855376 3214.3431045335533 1070.7672045489617
151.48991510446547 3249.4466154154134 1082.460943205488
185.47415481715785 3287.3963569093157 1095.1028228341652
219.4320731648632 3313.9611759550476 1103.9521385742394
228.58141029652154 3007.517013391784 1001.8689605726707
300.7310021909757 3505.607370499256 1167.7936306990593
357.84494806705595 3744.6907419108425 1247.437472359726
373.3066220017973 3243.754154191328 1080.5646612611865
409.0593605006043 3039.774293661601 1012.6145582570464
480.23833738066105 3328.1923290152613 1108.6928434349934
547.3029106915503 3156.4697487553517 1051.4883381152288
645.049223258498 3347.1671997622125 1115.013783249332
686.330433712678 3391.758146017548 1129.8679918130276
680.1451118401287 3208.650643309468 1068.87092260466
751.735155028649 3392.7068895548955 1130.1840388037447
807.1707534639446 3107.1350848132784 1035.0538945979483
933.8193855880262 3350.013430374255 1115.9619242214828
-1745.9090355249716 3426.0009564672437 1134.635820995235
-1535.61033275385 3357.651810203558 1111.9996948905919
-1447.1313650179668 3226.649279864827 1068.6137865233593
-1343.8374395725289 3120.3283856768717 1033.4020348050256
-1290.2361542820313 3059.57358899804 1013.2810338231207
-1213.5896706250317 3224.7506924686136 1067.9850052426748
-1117.4316584409034 3043.4355961302253 1007.9363929373021
-1141.742061789291 3189.626825638664 1056.352551550011
-1103.2070771079707 3122.226973073085 1034.03081608571
-1079.174275723424 3094.6974558279894 1024.9134875157845
-1118.229043209868 3435.493893448311 1137.7797273986575
-969.7146290605991 3022.551134771877 1001.0197988497723
-1046.409167608799 3359.5503975997713 1112.6284761712764
-950.9440313405507 3147.8579029219673 1042.5193633749514
-914.6647186904421 3125.074854167405 1034.9739880067368
-890.7244201133316 3253.229503411816 1077.4167244529426
-898.6314899789469 3526.6260884665585 1167.961228871515
-812.8807112848083 3313.9843000906476 1097.5377254348477
-736.0408139994496 3556.054193107868 1177.7073387221253
-551.7078380055823 2939.0132893384834 973.3534224996529
-512.079732115895 3226.649279864827 1068.6137865233593
-430.11110178642116 3319.680062279288 1099.4240692769013
-396.87852124170183 3312.0857126944343 1096.9089441541632
-339.04270921292726 3379.485565260013 1119.230679618464
-272.4281910952088 3008.3117293002756 996.3039392446383
-225.26704043825634 3172.5395390727426 1050.6935200238502
-195.2657980237766 3189.626825638664 1056.352551550011
-176.97158200878204 3441.1896556369516 1139.6660712407113
-7.391890007406296 3054.827120507506 1011.7090806214093
23.270565972030496 3150.7057840162875 1043.4625352959781
56.34976310597603 3277.9111395625914 1085.5908811018417
90.56021976588518 3354.8039291092377 1111.056522969565
124.20943454763037 3375.688390467586 1117.973117057095
203.91540495080045 3081.407344054495 1020.5120185509927
249.42053571472178 3283.606901751232 1087.4772249438952
323.211867205233 3384.2320337505466 1120.8026328201754
351.5486081349976 3339.61522993953 1106.0262727240888
373.96173745427194 3251.3309160156023 1076.787943172258
407.8860612798529 3269.367496279631 1082.7613653387612
455.78711516453103 3388.9785022410806 1122.3745860218867
482.0180119490615 3342.46311103385 1106.9694446451156
509.3490985573287 3309.237831600114 1095.9657722331362
529.934186452315 3238.9900979402146 1072.7008648478088
569.6753771340062 3287.404076543659 1088.7347875052642
674.235659636063 3333.9194677508895 1104.1399288820353
735.8518522244326 3473.4656413725806 1150.3553530123481
829.9334095619784 3449.733298919912 1142.4955870037916
891.0842841972391 3562.699248994615 1179.908073204521
882.8353095901831 3400.3700266183614 1126.1472737059937
909.2348824819269 3378.5362715619062 1118.9162889781217
1012.8938676868141 3635.7948637488344 1204.1161525108755
955.6328433948757 3317.7814748830747 1098.7952879962168
952.7173673569141 3202.9169374121584 1060.7540205148027
1055.1311935243314 3336.7673488452097 1105.083100803062
-1964.897694256646 3732.875000910073 1229.0419958571877
-1627.1202136136117 3427.9760504540595 1128.65459619557
-1562.4962174436985 3668.2858151436903 1207.776129262203
-1359.848470093912 3296.8979969869883 1085.4973963410428
-1057.325962165833 3033.792049085693 998.8702632997092
-1045.5221296029142 3358.637659851913 1105.8250629391896
-815.9077663540442 3328.242748903027 1095.8175963062558
-796.9086222809738 3382.3836840307304 1113.6433962461692
-774.7213751050334 3579.0007642313376 1178.37919602796
-691.2417468366427 3341.5405224431647 1100.1958629581643
-564.1818524307731 3007.1965020054176 990.1137299958921
-499.3761340802747 2967.303181385005 976.9789300401665
-438.9922965615447 3153.472010946932 1038.2746631668863
-413.87585287712534 3196.214854468803 1052.3476631194494
-407.5711497876233 3403.2801853080896 1120.5235295563111
-363.13252723165004 3300.697360855599 1086.7483296701596
-341.23315368256135 3403.2801853080896 1120.5235295563111
-352.5348915727579 3695.831203191118 1216.8453958982996
-317.6466286200052 3509.662373629191 1155.5496627715797
-163.98552937034452 3190.515808665887 1050.4712631257744
-143.22208412978932 3442.22366496135 1133.3455961797576
-104.79503294199343 3294.0484740855304 1084.5591963442052
-38.68016137099161 3165.819943519917 1042.3401964865157
51.258211965210165 2983.4504778266005 982.2953966889125
87.45954444283139 3241.807220892132 1067.3588630688503
145.34185723599228 3121.177418063741 1027.641729869394
186.5982406039285 3311.145611494279 1090.1883963252305
212.39617502731247 3211.4123099432463 1057.3513964359163
298.37073180842134 3482.116985581763 1146.4803961354835
337.08323205303117 3531.508715873703 1162.742529414001
412.8319209677671 3591.3486968043226 1182.4447293475894
469.8340860577049 3259.8541992680334 1073.3007963821547
483.19491363427596 3141.124078373947 1034.209129847257
525.4300564971225 3213.3119918775515 1057.9768631004747
975.4375643220822 3333.9417947059433 1097.6939962999309
1047.311415390277 3522.9601471693286 1159.9279294234882
1089.4154425809354 3552.405217151062 1169.6226627241429
-1734.8993934067578 3352.0091041202245 1097.1617774490373
-1515.7600881598676 3195.195522555201 1045.8343906389746
-1453.9433985102548 3245.5659457245724 1062.32136943251
-1446.817716261265 3294.985983551125 1078.4972731544692
-1178.0782924298983 3212.302458725931 1051.4337419273452
-1135.9653906433332 3177.138201041653 1039.923964279028
-1061.9604529204737 3048.836179761179 997.9288296162495
-1254.4663852521237 3751.1709481039197 1227.8133075110152
-952.091129086438 3155.2793381568317 1032.7692376327768
-900.7724842024342 3081.1492814170024 1008.5053820498382
-919.5748463265152 3362.463342891226 1100.583603236375
-894.006973695911 3386.222976461684 1108.3604800257783
-808.6894042658663 3300.688295608035 1080.363723583926
-763.3404410559959 3241.764404353299 1061.0770691462053
-761.9914853188924 3372.9175816622273 1104.0054290237124
-716.1238188669935 3310.1921490362183 1083.4744742996872
-691.2417468366427 3343.4556360348597 1094.362101804852
-665.0988474997965 3373.867967005046 1104.3165040952886
-628.690327029617 3352.9594894630427 1097.4728525206135
-589.080645424705 3312.0929197218547 1084.0966244428396
-499.3761340802747 2969.00381096444 971.7985236038539
-372.8769826971334 3115.363153758462 1019.7040846265791
-329.3794894486794 2995.614600563353 980.5086256079858
-333.9951632611618 3333.001397263858 1090.9402760175146
-312.31669872164514 3452.7499504589664 1130.135735036108
-234.7037207678063 3309.2417636933997 1083.163399228111
-163.6437911430172 3185.691669127018 1042.7236399232133
-130.14081761572743 3129.618933900737 1024.3702107002212
-104.9461215131324 3300.688295608035 1080.363723583926
-74.05069355691737 3365.314498919681 1101.5168284511033
-8.294628594389103 3431.8414729169635 1123.2920834614329
27.743787150143017 3760.674801532103 1230.9240582267767
62.66524480942599 3649.4797164223596 1194.5282748523684
84.97387910120975 3151.4777967855584 1031.5249373464724
115.65169791541175 3146.7258700714665 1029.9695619885917
151.13607004728715 3247.466716410209 1062.9435195756623
196.126205844175 3482.2118960863345 1139.7790622549683
360.2928359813733 3776.8313523600145 1236.2123344435709
372.97906427556 3246.5163310673906 1062.6324445040862
448.50984189719816 3338.7037093207678 1092.8067264469714
469.01269779536625 3256.0201844955736 1065.7431952198474
538.9424463627003 3297.83713957958 1079.4304983691975
543.5370126253779 3230.3597802394793 1057.3441682872917
578.723065768823 3343.4556360348597 1094.362101804852
605.4407404698331 3313.043305064673 1084.4076995144158
637.9185770830214 3315.894461093128 1085.3409247291443
731.628597538258 3457.5018771730583 1131.6911103939888
745.0082185183255 3368.165654948136 1102.4500536658318
822.6241257857347 3564.8954209115286 1166.8425934820923
870.1283132721898 3620.9681561378097 1185.1960227050843
852.1453493162513 3410.9329953749602 1116.4484318867578
891.9544906216842 3439.44455565951 1125.780684034042
979.3070475311416 3519.276924456249 1151.9109900464375
955.6328433948757 3321.596773150038 1087.207375158601
1068.7715576306816 3597.208522567352 1177.419145915681
1018.0499924653394 3321.596773150038 1087.207375158601
1083.5138103055554 3332.0510119210394 1090.6292009459385
1247.3397985871359 3277.879047380395 1072.8979218660986
-2041.7694668762701 3546.0061246278283 1153.8117541878005
-1482.1031141277897 3069.591786081692 998.7944066822794
-1291.2879739065208 3134.254810075978 1019.8346853856236
-1398.6769521342555 3550.760758745055 1155.358833504223
-1308.938391400299 3401.4652474641302 1106.7805429685607
-1246.0443477623924 3399.5633938172396 1106.1617112419917
-1044.4155950636205 3000.174127970179 976.2070486625129
-1145.553387669273 3380.544857348332 1099.973393976302
-1003.8251939019268 3134.254810075978 1019.8346853856236
-900.7724842024342 3082.9047616099274 1003.1262287682621
-892.0239888616733 3263.58085806455 1061.915242792312
-869.4173909223496 3294.9614432382477 1072.1259662806995
-900.0828463557634 3538.3987100402655 1151.3364272815247
-779.8615116171421 3606.865441328333 1173.6143694380069
-718.5534588350206 3477.539393339761 1131.5338120313183
-682.3352119983828 3463.27549098808 1126.8925740820514
-494.4207371031657 2941.2166649165656 957.0232651388756
-430.3975678638036 3095.2668103147175 1007.1486349909602
-376.74452919246676 3149.469639251104 1024.7853391981753
-359.2660801791116 3269.2864190052223 1063.7717379720189
-264.5772493564753 3280.697540886567 1067.4847283314325
-229.37873686756026 3236.0039801846337 1052.9421827570623
-126.26781423694173 3038.2112009079947 988.5836831938918
-37.60087694029787 3081.0029079630367 1002.5073970416931
-7.9776364188073545 3302.5688578258105 1074.6012931869755
26.383591368710682 3578.3376366249713 1164.3318935394725
61.620824062602225 3590.6996853297615 1168.3542997621707
97.17157706628088 3605.9145145048874 1173.3049535747223
182.69070429753526 3245.5132484190876 1056.036341389907
211.20258516469227 3197.015980423373 1040.2561323623988
288.44131847491684 3370.084662290433 1096.569819480173
337.6272071451017 3541.2514905106013 1152.264674871378
376.13102928372115 3579.288563448417 1164.641309402757
457.27296242784905 3671.5284653226186 1194.654648141351
401.78208723327145 2992.5667133826164 973.7317217562371
485.53271787320807 3159.9298343090036 1028.1889136943043
589.8097402855861 3229.347492420516 1050.7762717140708
632.799138803192 3291.157735944466 1070.8883028275616
673.8516985542657 3337.7531502932898 1086.0496801285008
714.9366861595676 3380.544857348332 1099.973393976302
775.350557364589 3228.396565597071 1050.4668558507865
850.7311488240564 3166.586322073121 1030.3548247372958
928.28998664538 3228.396565597071 1050.4668558507865
-1939.9273856644209 3371.0419383630046 1090.3784892402255
-1502.3642469278793 3230.22505807011 1044.8306437963774
-1323.941599129517 3442.4018439168362 1113.4601676746079
-1457.261935103374 3978.0768682742655 1286.7266337887052
-1249.8850827221736 3794.444044649072 1227.329781284228
-1111.2509413282974 3686.9284536146324 1192.5533857764249
-706.764230634282 3422.4210703617637 1106.9972977129808
-678.7755280258486 3447.1591709537583 1114.9989462369
-384.9346276531725 3219.758938588882 1041.4453309593348
-307.4241194773397 3071.330335036912 993.4354398158193
-293.91984391117666 3253.0602278473366 1052.2167808953798
-253.53402503550936 3145.544636812897 1017.4403853875771
-229.44614172705704 3238.7882467365703 1047.6004452085033
-175.2140711253845 3414.809347102688 1104.5352520133133
-102.46826894645321 3226.4191964405727 1043.5996209465438
-38.111506133314265 3124.6123978504397 1010.6697597134915
26.21531972564689 3557.5291582103514 1150.6986088820781
92.45650054196767 3432.887189842992 1110.3826105500236
131.33506015160017 3577.509931765424 1157.1614788437053
155.60336389416335 3347.255303178394 1082.6845964287647
296.3360159613917 3464.285548286678 1120.5385490611518
333.36606892388266 3498.5383029525174 1131.6177547096554
357.8441062340609 3407.1976238436127 1102.0732063136459
407.26343962173263 3548.9659695438913 1147.9288074699523
455.61488900801226 3660.287422207869 1183.936225827589
509.1537857916386 3794.444044649072 1227.329781284228
538.5569040067048 3743.0649126503135 1210.7109728114724
481.29544769014365 3134.127051924284 1013.7473168380758
671.497495101771 3176.942995256583 1027.5963238987054
1062.8417814853067 3581.315793394962 1158.392501693539
978.9577139231504 3247.35143540303 1050.3702466206294
-1955.6753901742168 3608.084142450381 1160.0986255478872
-1725.553465288037 3339.619834225841 1073.7799415361446
-1476.9340115467276 3302.4917915990427 1061.842251194095
-1241.5456265671558 3084.4835413032283 991.7465822625737
-1194.1569693101249 3034.9794844674975 975.8296618065077
-1484.796901109872 4055.524656157948 1303.9630989007915
-1134.606173903108 3178.7316495097157 1022.0499500539302
-1061.2983828126678 3052.115504141404 981.3393650412999
-1061.4494680682376 3135.8916003249487 1008.2756919669499
-915.0837589303922 3471.9479861521213 1116.3270942937056
-758.3337068866753 2984.5234265387717 959.6066467262866
-754.2024130196202 3083.5315402102333 991.4404876384186
-790.1949860359782 3361.5158593647216 1080.8201178917122
-720.5532332291358 3194.9156680906276 1027.2535586645672
-737.3011812968816 3413.875919479437 1097.6553222202435
-669.2351875285973 3242.515722740369 1042.5582898723228
-646.1763169089572 3283.451769739146 1055.7203587109927
-465.28747442322884 3601.420134799417 1157.9559631788013
-337.42587926071883 3074.0115292802852 988.3795413968675
-280.25115272022106 3103.5235631631244 997.868474745676
-261.6630651606648 3248.2277292983376 1044.3948576172536
-242.25306503144623 3421.4919282233955 1100.1040792134845
-217.93057815153637 3570.004098730588 1147.8548405816825
-175.2140711253845 3416.7319227584217 1098.573606092709
-127.69055017200587 3075.915531466275 988.9917306451777
-104.49285579971547 3292.0197795760996 1058.4752103283888
-69.86822004339477 3180.6356516957053 1022.6621393022403
-41.47701672364957 3402.4519063634993 1093.9821867303822
-8.025874358569794 3326.291818923913 1069.494616797973
26.21531972564689 3559.5320867076452 1144.4877997159763
56.92093070189527 3320.5798123659442 1067.6580490530423
239.25334995705316 3158.7396265568245 1015.6219629466727
352.7477506300573 3360.563858271727 1080.5140232675571
405.95320871678337 3539.5400637547536 1138.0598126087189
427.9013761335971 3439.5799489902975 1105.9198770724317
492.832957403187 3427.2039347813648 1101.9406469584153
553.6212663321052 3607.1321413573864 1159.792530923732
562.550299920951 3448.1479588272505 1108.6747286898278
589.2512852711552 3410.067915107458 1096.4309437236232
887.5437281281453 3250.1317314843272 1045.0070468655638
1016.0674254967989 3657.588199286112 1176.0155460039532
1395.3923770975525 3089.243546768202 993.2770553833493
-1941.569999877515 3377.685133674443 1079.51801177871
-1846.1064369290305 3306.2450927760833 1056.685566521123
-1602.416567453575 3052.871081056568 975.706494007548
-1466.0332228655616 3041.4406745128304 972.0533027663341
-1549.4809540553345 3610.103400063773 1153.799567016726
-1170.5585097534945 2976.6683707649845 951.3518857327886
-1405.4347260049676 3747.2682785886236 1197.637861911293
-1193.5667364070287 3528.1854865003206 1127.6183631213596
-1228.8865118740327 3734.885338166241 1193.6802380666445
-998.1229053113335 3535.805757529479 1130.0538239488355
-989.2317312376248 3625.3439421220896 1158.670488671678
-681.8103642760518 3305.2925588974385 1056.3811339176884
-590.9075394406643 3004.2918532456833 960.1804312323889
-551.2172122611086 3106.2129782606767 992.7547197998796
-504.81108560355557 3008.1019887602624 961.3981616461268
-504.54296091245516 3397.6883451259837 1085.9110964508343
-406.4336361125253 3403.4035483978523 1087.7376920714412
-366.47648143925085 3340.536312407296 1067.6451402447647
-341.1379169664903 3411.9763533056557 1090.4775855023515
-232.27714582592202 3282.4317458099636 1049.0747514352606
-198.57834281167993 3254.8082633292647 1040.2462059356603
-139.665244292129 3366.2547271307053 1075.864820537496
-7.594029945458426 3149.0770027996923 1006.4541869544317
52.77588586293845 3080.494563537267 984.5350395071483
85.64013991442792 3183.368222430905 1017.4137606780735
113.20663030620642 3087.1623006877808 986.6660677311897
143.9707076394263 3100.4977749888076 990.9281241792726
232.24745905825915 3521.517749349807 1125.4873348973183
338.1711822371722 3552.951367345085 1135.5336108106565
422.003537302412 3681.5434409621325 1176.632012274313
456.6807933493359 3672.9706360543296 1173.8921188434026
528.691667843986 3242.4253229068822 1036.288582091012
562.7662330856007 3258.618398843844 1041.4639363493984
644.5803667354536 3631.0591453939587 1160.4970842922849
601.272473754034 3297.6722878682804 1053.9456730902125
739.4717848125823 3502.4670717769113 1119.3986828286284
1059.7357082663007 3574.859646553916 1142.5355606896499
1108.6404209794225 3625.3439421220896 1158.670488671678
-1547.3425887348724 2693.358193422361 855.6270460455507
-1537.4009222561417 3249.9474308458075 1032.444524775417
-1231.7382857894725 2996.4324699645804 951.9077964498272
-1215.1053030384107 3022.1651915577877 960.0825771445299
-1202.9757898799248 3025.9774466086333 961.2936557659673
-1129.8489153123191 3168.93701101534 1006.7091040698713
-1002.6069594433079 3137.4859068458645 996.7177054430124
-1026.894228282323 3639.750509794762 1156.277313817395
-739.7656888432643 3027.883574134056 961.899195076686
-697.2081165024332 3231.8392193542913 1026.691901323589
-599.1510181139012 3047.897913150995 968.2573578392326
-604.2768987974579 3231.8392193542913 1026.691901323589
-520.5265198087567 3507.27464677788 1114.1923317224441
-460.24470771655365 3566.364600065986 1132.9640503547243
-411.779950385486 3450.0908210151974 1096.0261524008824
-374.5660043074278 3748.3997787438593 1190.793054528362
-259.43908248491476 3224.2147092526 1024.2697440807142
-228.63728341309562 3232.7922831170026 1026.9946709789483
-187.24595274780003 3070.771443456068 975.5238295678572
-170.67383467660747 3331.9109144389863 1058.4827151363218
-147.72741459082573 3562.5523450151404 1131.7529717332868
-108.48159407778442 3421.498908133856 1086.9430627401016
-74.78262642178382 3408.1560154558965 1082.7042875650707
-41.453806305785186 3404.343760405051 1081.4932089436331
22.94804532282489 3119.3776953543484 990.9650819911845
93.04588510750682 3460.5745224050224 1099.3566186098353
125.15253205403813 3414.8274617948764 1084.823675152586
162.32641998055132 3497.7440091507665 1111.1646351688505
194.78800847897182 3468.1990325067136 1101.7787758527102
250.57425892126574 3311.896575422047 1052.1245523737753
308.5793353953589 2943.060899252743 934.952695749703
383.0149599823009 3082.2082086086043 979.1570654321696
492.4000178250711 3211.824880337352 1020.3337385610425
574.8201711781999 3527.2889857948194 1120.5504944849906
546.1513866834828 3164.171692201783 1005.1952557930745
700.0831847666635 3649.281147421876 1159.3050103709886
821.9914180364619 3299.506746506799 1048.1885468541036
1007.0756783685086 3629.266808404937 1152.946847608442
869.7762732014592 3031.6958291849014 963.1102736981235
-2054.910380581025 3578.826060657462 1130.0500110875587
-1725.553465288037 3345.19632848025 1056.2790937636971
-1613.8799436070622 3477.745441837934 1098.1327978780512
-1558.2526613609175 3490.1421215044797 1102.0471730829909
-1459.3370504083198 3334.706830300865 1052.9669301287483
-1378.449701085715 3509.213936376089 1108.069288782898
-1232.809583384389 3459.627217709905 1092.4117879631394
-1056.2936722306263 3125.870457456744 987.024763214766
-1001.6932835993438 3136.3599556361296 990.3369268497149
-947.0609109496985 3054.35115168821 964.4418293401146
-978.0133079557583 3356.6394174032152 1059.8923631836415
-893.5834713596831 3278.444976429618 1035.2016888140224
-793.786979309628 3250.7908448657845 1026.4696210491572
-774.0822590479888 3298.4703820448076 1041.5249102989249
-762.2061912882693 3385.247139710629 1068.925536733502
-780.2727225381109 3618.8768718878414 1142.6964540573633
-681.7731566342985 3470.11671588929 1095.7239515980884
-434.7610455103491 3135.406364892549 990.0358210647196
-379.474562012702 3181.178720584411 1004.4888987444965
-307.80506634162384 3082.0052832520432 973.1738971049798
-301.055072646078 3339.474784018767 1054.472459053725
-259.43908248491476 3225.9974855326927 1018.6408706392781
-228.97430771057955 3239.347755942819 1022.856351629213
-193.11554965268144 3168.782040917865 1000.5745235395569
-126.62349822070777 3055.3047424317906 964.74293512511
-104.25111408589311 3289.8880653525835 1038.8149582339668
-71.66668365420949 3267.9554782502328 1031.8895251790736
-41.47701672364957 3408.13331755656 1076.1520755733904
57.45946014947628 3357.593008146796 1060.1934689686368
86.3576515594321 3213.6008058661464 1014.7264954343385
140.25533453905402 3023.836247893635 954.8064442202633
162.35010434644727 2892.240725279532 913.2538458909047
212.20771347005666 3221.2295318147903 1017.1353417143014
291.85964109792656 3419.5764064795258 1079.7653449933348
322.1239170210919 3388.1079119413707 1069.828854088488
371.6342449272473 3546.4039753757265 1119.8124143977166
409.01041416166504 3572.150925452399 1127.942270592591
443.5346398063441 3571.1973347088187 1127.6411648075957
580.9443533746239 3791.476796475905 1197.1966011415223
623.8505851312797 3425.2979509410084 1081.5719797033069
655.0376055461978 3253.651617096526 1027.3729384041433
795.2106318579242 3457.720036222744 1091.8095763931487
787.2263243698787 3287.027293121842 1037.9116408789807
799.1102809353647 3271.7698412245545 1033.093948319055
838.1368300602862 3366.17532483902 1062.903421033595
888.0959872236214 3097.2627351493306 977.9915896649055
992.9992630370077 3250.7908448657845 1026.4696210491572
1365.591388121202 3986.009308166318 1258.6221812805743
-2009.4647206854147 3501.601388103599 1098.94846049801
-1485.767425945106 2980.6546965764696 935.4536759116576
-1483.2988370154565 3139.0377566378315 985.1608814818672
-1487.71420780831 3401.41933204069 1067.5071557698652
-1536.8070992860164 3586.5176070521607 1125.5987092675803
-1676.992962533436 3954.805927435809 1241.1829342681883
-1438.7554261525352 3429.0886618104455 1076.1909446947814
-1087.2245115253813 3309.824309354601 1038.7608200184188
-980.7683551733219 3164.7988567682937 993.2457884119616
-997.1147156125135 3317.457227911775 1041.156347997706
-1036.3606928053914 3558.8482772824045 1116.9149203426641
-751.2823526098174 3486.3355509892513 1094.1574045394357
-665.3054447950177 3230.63277932392 1013.9072172333139
-512.531700105406 3245.898616438268 1018.6982731918883
-470.0655464687625 3391.878183844222 1064.5127457957562
-453.35702636109477 3516.867225217947 1103.7395164565844
-368.3756177628097 3690.516122393657 1158.2377779853687
-270.53692564740356 3002.5993374283453 942.3408188521083
-258.5188137915009 3216.3210570292185 1009.4156022721503
-196.60243890310602 3227.77043486498 1013.0088942410812
-182.9764108603904 3576.0223440360464 1122.3048582960603
-65.97851967581877 3010.2322559855193 944.7363468313955
-37.275931090196536 3064.6168007053843 961.8044836838169
-7.78009057025641 3231.586894143567 1014.2066582307248
25.82969721029236 3514.9589955786537 1103.1406344617626
87.02391237265027 3240.1739275203877 1016.9016272074228
116.24550004907589 3175.2941197844084 996.5396393834816
159.71681268386126 3445.3086137444407 1081.2814416507667
192.59336480003864 3432.9051210890325 1077.3887086844252
250.14161271881176 3309.824309354601 1038.7608200184188
308.4338772039839 3245.898616438268 1018.6982731918883
397.4367078346131 3472.9779435141963 1089.9652305756829
424.3483616625183 3418.5933987943313 1072.8970937232616
446.97778436723337 3340.355983583297 1048.3429319355675
491.7377730534021 3427.180432171152 1075.5920626999596
562.7056147469922 3456.7579915802016 1084.8747336196975
625.5873629295293 3436.7215803676195 1078.5864726740688
716.8464667256759 3649.4891851488464 1145.3618150966997
713.0157288975905 3543.5824401680566 1112.1238643840898
728.7928728314364 3537.857751250176 1110.3272183996244
751.5382267730813 3565.5270810199318 1119.0110073245405
817.1414270001726 3555.0318180038175 1115.7171563530205
947.8115802213962 3539.7659808894696 1110.9261003944462
985.1252368494471 3554.077703184171 1115.4177153556095
918.2681916552118 3102.7813934912547 973.782123580253
-1459.6052663606704 3034.78781002872 946.6276713159649
-1429.290648455389 3269.6282633999263 1019.8803945445675
-1234.0889313730402 3007.1033663386183 937.9921876833248
-1176.1771906003112 2997.5570064454796 935.0144347065524
-1024.0219003429115 2804.7205366040826 874.8638245757487
-1187.7664660897158 3518.78825661084 1097.5997472383287
-1086.301565355249 3616.161127520853 1127.9728276014077
-792.6376732824538 3015.695090242443 940.6721653624201
-759.5431705340224 2997.5570064454796 935.0144347065524
-600.0000938516781 3214.2593760197233 1002.6094272792872
-620.6898507889575 3505.4233527604465 1093.4308930708473
-543.9747068742557 3248.6262716350216 1013.3293379956681
-256.6015873468888 3194.2120202441324 996.356146028065
-213.94302404279642 3030.0146300821507 945.1387948275787
-187.30406756864045 3076.791793558529 959.7297844137638
-145.75139245879222 3520.697528589468 1098.195297833683
-110.38531007413552 3487.2852689634833 1087.7731624149797
-37.87940195467045 3115.9318691203966 971.9385716185309
-7.844407823272996 3260.081903506788 1016.9026415677951
24.364331651945154 3317.3600628656186 1034.7691594284297
56.12129606760833 3282.9931672503203 1024.049248712049
93.53276800947394 3484.421360995542 1086.8798365219477
125.64154557587919 3433.825653561908 1071.0977457450538
158.301432455148 3416.6422057542586 1065.7377903868633
232.9799800214704 3084.42888147304 962.1119867951818
267.76860546909603 3140.752404842557 979.6807293581393
340.8003951821797 3588.476683830751 1119.3373439687675
367.33731765328343 3509.241896717702 1094.6219942615562
393.94275875474835 3444.32664944436 1074.3732740195035
420.7953471914394 3391.8216700320986 1057.995632647255
456.1701295470222 3410.9143898183756 1063.9511386007998
495.2971221902029 3453.873009337499 1077.351026996276
513.0019176806601 3351.726958480917 1045.4890701448105
599.6150013437634 3479.6481810489727 1085.3909600335617
653.6425660853545 3412.8236617970033 1064.5466891961544
713.0157288975905 3545.518064311628 1105.9374555732916
746.7116499888817 3544.5634283223144 1105.6396802756144
817.79935085444 3559.8376041513357 1110.4040850384501
858.9376866710513 3590.385955809379 1119.932894564122
912.7045582981675 3186.5749323296213 993.9739436466471
1015.1371169504172 3326.906422758757 1037.7469124052022
1168.8119256399427 3325.951786769443 1037.449137107525
-1620.2888012140231 3146.2781027747533 975.3820277204715
-1777.3537812465352 3509.2367181525333 1087.903330250459
-1392.8975225505342 3254.210533137093 1008.8423097885993
-1252.8940960415819 3054.5832946793143 946.9555933971062
-1185.9162374014604 3024.0183586475014 937.4801152893177
-1284.747044197119 3706.9536481083237 1149.1978292602155
-1249.9582533809028 3705.0433396063354 1148.6056118784786
-898.5218326033812 3301.968245686801 1023.6477443320188
-762.6356032270232 3392.707899531246 1051.7780699645157
-522.3947522965229 3121.4440922489052 967.6832017578934
-367.83496283608866 3362.142963499433 1042.3025918567273
-258.5188137915009 3219.8249801013035 998.1823969173374
-194.62653499453208 3198.811586579432 991.6680057182328
-171.4061308780231 3353.5465752404857 1039.6376136389117
-141.3646233256778 3416.5867558061 1059.1807872362253
-106.69874893834452 3372.649660260369 1045.5597874562795
-68.19523063798574 3114.7580124919464 965.6104409218146
-38.34361031195808 3155.829645284695 978.3431146291554
22.281970069030706 3035.4802096594312 941.0334195797384
89.76583187320198 3345.905341232532 1037.2687441119647
112.22860326252429 3068.9106084442265 951.397223760132
156.2225927442254 3373.6048145113627 1045.8558961471479
194.19920163828243 3465.2996226068017 1074.2823304705132
208.12437972951383 3164.4260335436425 981.0080928469708
369.136031395873 3528.3398031724164 1093.8255040678268
369.7034870131868 3234.152293866216 1002.6240272803632
602.9610584063103 4069.9122634861033 1261.7191317902032
496.1989497133357 3243.7038363761576 1005.5851141890471
562.0843554428277 3456.7032343478545 1071.6173522526976
696.9749543824814 3641.0480047897267 1128.7663295902967
1003.9021205585238 3625.7655367738203 1124.0285905364024
889.7487920988845 3009.691044882589 933.038484926292
-1783.6427303908479 3523.553826662773 1085.60463825931
-1674.505540611221 3616.253778164343 1114.1654329192377
-1653.2666517180267 3639.1898486389587 1121.2320212887043
-1477.5261656875934 3453.789945635818 1064.110431968849
-1438.7554261525352 3434.676553573639 1058.2216083276269
-1311.1339827753065 3424.16418793944 1054.9827553249547
-1175.9870291888985 3224.4292408896654 993.4445482741828
-1012.9619523415681 3178.557099940435 979.3113715352496
-939.6733417039536 3578.9826636430935 1102.6822268188544
-685.4886052548252 3186.2024567653066 981.6669009917384
-605.520978906857 3088.7241572481917 951.6339004215052
-590.555482929748 3167.0890647031274 975.7780773505162
-577.9244552961454 3267.434373029569 1006.6944014669327
-567.1531766058946 3390.7157518306262 1044.677313952816
-489.767309175892 3539.8002099156256 1090.610138354349
-318.66205197372324 3197.670492002614 985.2001951764718
-254.68436090227667 3173.77875192489 977.839165624944
-210.31753662144268 3458.568293651363 1065.5826378791546
-178.7290928921796 3498.70641698194 1077.9491675257211
-149.30823229645253 3610.519760545689 1112.398785826871
-92.64751182241979 2930.0830031321025 902.7566641993611
-68.15340590285052 3114.527236532134 959.5838123371552
-38.12311134224645 3139.374646212967 967.239283070744
-7.784684659757594 3238.7642849363 997.8611660050994
22.779773679761096 3104.970540501044 956.6394005165441
58.6997097863295 3437.543562382966 1059.10493187381
85.71701616210694 3196.7148223995055 984.9057539944106
123.96492778670984 3391.6714214337353 1044.971755134877
163.29949388779167 3528.332174678318 1087.0768441696155
268.5824918079079 3153.7096902596018 971.6559008016607
358.84339164661066 3431.809544764312 1057.3382847814435
393.8335728460026 3447.1002584140556 1062.0493436944212
440.1000591509679 3551.268245152933 1094.1434325390821
443.7859978464733 3321.9075404067803 1023.477548844416
574.6615044824939 3758.64854902758 1158.0371690463428
560.5312071824164 3449.0115976202733 1062.6382260585435
588.5932715522594 3419.385839923895 1053.5105494146492
636.1817074988522 3500.6177561881577 1078.5380498898435
704.471274720803 3682.1949807788624 1134.4818744814543
716.8553397155636 3568.4702980088946 1099.4433738161822
850.4833216079164 3423.208518336331 1054.6883141428934
858.1829244500552 3101.1478620886082 955.4616357882998
918.8329322404857 3109.748888516589 958.1116064268497
1071.4610326096292 3313.3065139787996 1020.827578205866
-1631.1383252359833 3524.487014509978 1079.1604535705258
-1635.4662492179114 3601.9377600811413 1102.8750484536545
-1591.0355725425543 3573.252298758488 1094.0918651636068
-1500.2335419553644 3437.47444849793 1052.5181309240477
-1437.051597230739 3360.9798849708554 1029.0963088172539
-1433.1509253272332 3423.1317178366035 1048.126539279024
-1397.8884091719087 3488.152096834617 1068.0350880697986
-1261.9557181950472 3221.3773065339433 986.3514834723552
-1303.4494129627803 3405.9204410430116 1042.8566293049953
-795.1014017660292 3142.9703789186915 962.3441158128915
-779.5831055232135 3201.297483608086 980.2032551693218
-781.6910467923171 3339.9438800009098 1022.6553077378857
-762.8503091964003 3397.314802646216 1040.221674317981
-693.2066182034325 3373.410251544005 1032.902354909608
-524.4432064762367 2814.0437557522696 861.630280753678
-455.7435996803842 3080.8185460529435 943.3138853511215
-370.5519256297643 3390.621528337597 1038.1722648836364
-314.5668731826682 3158.2692916241067 967.0284802342503
-306.90080221202123 3413.569897395719 1045.1988115156746
-252.70081825344795 3584.7264832875494 1097.6051384796258
-214.09499997606932 3522.574650421801 1078.574908017856
-128.08575459841256 3098.9860048906235 948.8765681014851
-107.3937563655838 3398.2709846903044 1040.514447094316
-76.41379109205762 3493.889189099148 1069.7917247278083
-41.60467402190367 3427.912628057046 1049.5904031606985
22.415185119789545 3056.9139949507326 935.9945659427484
84.94825368531674 3169.743476153168 970.5417535502694
139.68033632113927 3019.622895231283 924.5764276656864
180.2819490401696 3220.421124489855 986.0587106960203
267.6058282013337 3143.92656096278 962.6368885892264
308.79652726536426 3256.7560421652156 997.1840761967474
346.352323989739 3314.1269648105217 1014.7504427768426
413.0971491707686 3335.1629697804674 1021.191443856211
413.2725187080075 3095.1612767142697 947.7054769961453
510.3718879118615 3339.9438800009098 1022.6553077378857
549.5038545334967 3382.972071984889 1035.8300826729571
625.9347184891792 3446.0800868947263 1055.1530859110621
704.2884376393805 3683.2132338286583 1127.7607344421228
667.1825938675571 3404.008076954835 1042.2710837523255
653.5017612190086 3254.843678077039 996.5985306440775
783.5142979684038 3725.2852437685497 1140.6427366008595
817.5800429030176 3564.6466603616923 1091.4569101765926
952.6656017912632 3565.602842405781 1091.7496829529275
871.9350082933228 3152.532199359576 965.2718435762407
1053.5870737473913 3458.510453467876 1058.959132003416
1462.7631715235536 3456.598089379699 1058.3735864507462
-1558.779452436136 3247.9678882014814 988.2963104312427
-1567.1570691385186 3325.459905563579 1011.8756922117818
-1417.6804544417125 3283.3654763792297 999.06713914581
-1033.7811288009107 2837.5472036540777 863.4129180380164
-862.3330165230191 3068.1098725956263 933.5688564220899
-783.7324434809658 3099.680694483888 943.1752712215688
-763.4944271045312 3401.9952313533045 1035.163970513549
-696.1800892000115 3239.3576640501374 985.6763791222938
-666.2878804784126 3244.1411219119955 987.1318965161543
-641.6798739962826 3276.6686353726286 997.0294147944053
-624.5776140155768 3534.9753599129526 1075.6273540628695
-344.0092891069329 3149.42865624721 958.3126521177174
-348.661617536103 3502.4478464523195 1065.7298357846184
-305.2674365980077 3397.211773491447 1033.7084531196886
-245.2188788493048 3480.4439402877733 1059.0344557728604
-213.28139248430358 3511.0580706036635 1068.3497670935672
-154.31921951165793 3024.102060266534 920.1780963985738
-73.2978483244833 3353.2039611623545 1020.3176930961724
-41.65109485763243 3433.5660532415664 1044.7703853130279
-8.225717251871332 3425.9125206625936 1042.4415574828513
26.13118390411499 3565.589490228843 1084.9426653835762
53.29809623635033 3124.554675365549 950.7439616696431
140.87456338911605 3047.062658003452 927.164579889104
308.4338772039839 3254.6647292080825 990.3340347826472
400.82147100573206 3512.014762176035 1068.6408705723393
453.3646465096623 3662.2153390383714 1114.3441167395572
672.8277190419202 3706.2231513674637 1127.7348767630733
716.1728479318415 3747.3608889794414 1140.2523263502733
904.9967879012773 3066.1964894508833 932.9866494645457
1144.704835531026 3543.5855840642967 1078.2472853718182
-1755.5843419008372 3473.6722184683244 1050.3534255865256
-1320.1250661331596 3090.7929439058194 934.5801078034973
-1174.3042969847056 3000.816314383631 907.3733781244856
-1195.0124958023937 3201.827933528946 968.1543699605755
-1100.3535127423681 3672.769441240827 1110.5555508337006
-687.5446598596687 3200.87073534254 967.864936666118
-639.9586041634296 3117.5944931251947 942.6842400483092
-610.3921253955879 3118.551691311601 942.9736733427668
-536.2044200771309 2880.2093428964417 870.9047830228316
-570.656028394205 3231.50107730754 977.1268020887602
-546.8520341512867 3274.574995695822 990.1513003393509
-508.9401655016222 3684.255819477702 1114.0287503671914
-447.4532994849872 3482.2870021459808 1052.9583252366438
-418.3775297010546 3520.5749296022314 1064.5356570149468
-313.6145060219577 3152.0536278358204 953.1038386487818
-247.93572381724192 3094.6217366514447 935.7378409813275
-219.0657933645521 3110.894105820351 940.6582069871063
-193.92915714444717 3194.170348037696 965.8389036049149
-172.8707232808544 3389.4387780645734 1024.8832956742594
-143.65680899883668 3479.415407586762 1052.0900253532711
-38.78460825138133 3198.9563389697273 967.2860700772028
22.436219075172517 3063.034196500038 926.1865422642277
84.64074869460066 3161.6256096998827 955.9981715933575
120.29732637290185 3296.590553983166 996.808266111875
152.63991154029497 3303.29094128801 998.8342991730781
190.93400006718673 3414.325930911136 1032.4085613301563
231.6820743864917 3530.1469114662937 1067.4299899595223
316.5203971639254 3722.543746933952 1125.6060821454942
347.32809628702597 3667.026252122389 1108.8189510669552
343.4543962933447 3289.890166678322 994.7822330506721
351.2510684351512 3079.3065656689446 931.1069082700064
390.002555108756 3152.0536278358204 953.1038386487818
486.6725454356471 3402.839552674261 1028.9353617966653
473.5514711486811 3102.2793221426946 938.0533073369882
535.7876706108744 3117.5944931251947 942.6842400483092
624.1979406909296 3440.170281944105 1040.2232602805107
667.5381842734627 3494.730578569262 1056.7209580645922
657.3413720369816 3277.4465902550405 991.0196002227236
860.8275559583759 3115.6800967523823 942.1053734593941
1430.5415671186174 3879.5242495045795 1173.0731424365358
-2345.7385956113976 4192.818850994529 1259.8230362812521
-1865.7257442601183 3436.234362121602 1032.4908757828077
-2073.1570162201674 3877.734930944918 1165.1492631116469
-1900.4337730860611 3669.9136219760253 1102.7048595316944
-1786.5453223036077 3536.7930600097757 1062.7059097731074
-1456.072158976595 3275.3404455005234 984.1468213983285
-1380.2207318181654 3373.983739619399 1013.78633093167
-1410.1505881997325 3524.3429355093353 1058.9650008028798
-1315.145896878246 3362.4913170036075 1010.3331841899214
-1115.3604185038052 2919.075344410993 877.0992724041243
-1187.1529218389699 3182.443362689544 956.2338852358613
-1100.353008639405 3023.4648498377637 908.4653553083401
-715.5070024855404 3332.80255857948 1001.4125551070712
-650.672759821632 3326.098645386935 999.3982195077178
-572.0226614980359 3074.2230497241753 923.7167534177294
-586.5451476682142 3323.2255397329873 998.5349328222807
-576.104861467769 3451.5575922759904 1037.0950714384726
-522.324339878143 3320.3524340790395 997.6716461368436
-509.77651559531495 3451.5575922759904 1037.0950714384726
-410.642436710388 3457.303803583886 1038.8216448093467
-315.9954239237339 3177.6548532662973 954.795074093466
-256.6015873468888 3204.470506036477 962.8524164908792
-245.034360260345 3257.144109692187 978.6793390572267
-216.3695989846807 3074.2230497241753 923.7167534177294
-189.9192345064589 3129.7697590338335 940.4069626695139
-169.55098050110345 3326.098645386935 999.3982195077178
-144.92146316333813 3511.8928110088946 1055.2240918326522
-98.87236095334559 3133.6005665724306 941.5580115834301
-7.57795063220428 3159.458517457961 949.3275917523642
22.618513355158292 3089.546279878564 928.3209490733941
53.15122456882824 3119.2350383026915 937.2415781562445
82.8213441661972 3095.2924911864598 930.0475224442683
150.64953309366697 3261.9326191154337 980.1181501996219
274.44190775664384 3645.0133729751437 1095.2230415912393
267.93138273685844 3152.754604265416 947.3132561530109
318.6721180621112 3054.1113101465407 917.6737466196695
443.4162059906415 3585.635856126889 1077.3817834255385
419.0177344453756 3143.177585418923 944.4356338682205
437.38924969532843 3059.857521454436 919.4003199905437
498.8289794821343 3269.594234192628 982.4202480274542
569.0735226146783 3509.019705354947 1054.3608051472152
592.2123470061861 3447.7267847373932 1035.9440225245564
669.9150663319549 3509.019705354947 1054.3608051472152
672.1238736861778 3352.914298157115 1007.455561905131
832.0636530364205 3233.2015625759554 971.4852833452507
944.0629543863133 3103.911808148303 932.6373825005797
1046.4283404719367 3242.778581422448 974.362905630041
-1512.8764986976255 3048.04267916627 910.0531995333611
-1605.3959487906222 3686.205654433398 1100.589329960654
-1115.3604185038052 2920.6017246459573 872.0031915050878
-1274.9734892628899 3505.1053506413755 1046.518265920476
-1286.8384488083466 3628.7134944994227 1083.423912805042
-1189.0554150491187 3535.767835939496 1055.6731550701359
-1142.3849364399005 3492.648715989014 1042.7990922034269
-939.6733417039536 3588.46898254564 1071.4081207961135
-936.3667557761786 3709.2025184069885 1107.4554968228986
-774.9260977243889 3188.8984710045097 952.1084715646103
-572.9136625284067 3080.6215697955226 919.7802692548745
-557.9785396117508 3163.026999034221 944.3840338445849
-511.47710812988043 3253.098049597449 971.2765207217103
-517.5561239076741 3506.0635533069417 1046.804356206403
-444.7474246667712 3464.8608386875926 1034.5024739115477
-419.40129200864277 3532.893227942797 1054.8148842123553
-395.94507789373296 3630.629899830555 1083.9960933768955
-261.4329979873114 3266.512886915377 975.2817847246865
-210.49188108396393 3470.6100546809903 1036.219015627109
-141.5227050962405 3431.3237453927736 1024.4893139041073
-110.5363986452745 3505.1053506413755 1046.518265920476
-76.49744056232807 3505.1053506413755 1046.518265920476
-8.733364141752249 3643.0865344829167 1087.715267093945
22.716671813612173 3104.576636434679 926.9325264030462
52.77588586293845 3098.8274204412814 925.2159846874849
87.28016653158035 3263.638278918678 974.4235138669059
121.51986017750451 3333.587073505015 995.308104739567
188.41818902060479 3372.8733827932315 1007.0378064625686
337.26455708372134 3564.5139159064834 1064.2558636479419
375.33160095368135 3599.0092118668686 1074.555113941309
382.65965853519305 3095.952812444583 924.3577138297043
414.54923331631153 3111.284055093643 928.9351584045341
437.38924969532843 3061.4575164841976 914.0584635363372
492.9844688848041 3232.975793620558 965.2686247172462
552.2995214022369 3407.368678753617 1017.3370567559358
543.1903249484518 3163.985201699787 944.6701241305118
637.223774177802 3515.645579962604 1049.6652590656718
666.9896730291953 3495.523323985713 1043.6573630612074
668.0922823273062 3334.5452761705815 995.594195025494
895.4785585459852 3138.113729729498 936.9456864104865
1060.7835495764457 3111.284055093643 928.9351584045341
-1862.7910413471482 3630.5988981414293 1077.0889660628027
-1594.0158371954303 3589.374775453264 1064.859014771358
-1333.2077549272944 3126.32242060713 927.4853758465274
-1451.1522493240182 3630.5988981414293 1077.0889660628027
-1291.9220160447367 3306.5581198018986 980.9558605626105
-900.0352089036176 3263.41659605847 968.1570743273778
-864.4731313968314 3188.6379549031935 945.9725115196412
-786.3932635051295 3116.7354153308124 924.6412011275868
-774.9260977243889 3190.5553559584573 946.5413464634294
-792.2090769094768 3393.7998678163876 1006.83785050497
-693.0101310667535 3381.336760957175 1003.1404233703472
-705.7541855018968 3611.4248875887947 1071.4006166249214
-493.3017764954314 2958.5498282715744 877.712318265067
-459.56268012463323 3114.818014275549 924.0723661837986
-372.5373984405273 3417.7673810071815 1013.9482873023214
-355.23295094500526 3575.95296806642 1060.8771701648411
-301.3129724798696 3360.2453493492767 996.8832389886778
-286.2035636517002 3577.8703691216833 1061.4460051086294
-247.9150732291762 3526.100540629569 1046.0874616263502
-188.81505291049112 3114.818014275549 924.0723661837986
-157.00430558351533 3083.1808968637015 914.6865896112947
-139.82332606269165 3391.8824667611243 1006.2690155611818
-98.20757124033409 3115.7767148031808 924.3567836556928
-41.50022714151395 3428.3130868111307 1017.0768794931561
-8.331381310398582 3477.20681372035 1031.5821705597532
116.10578189997844 3186.72055384793 945.4036765758531
176.10677326073574 3154.124735908451 935.7334825314551
