# .PCD v.7 - Point Cloud Data file format
VERSION .7
FIELDS x y z
SIZE 4 4 4
TYPE F F F
WIDTH 853
HEIGHT 1
VIEWPOINT 0 0 0 1 0 0 0
POINTS 853
DATA ascii
-796.7089443149483 3265.6288551327557 1925.4477870158737
-391.54462682638706 3090.7613643408936 1822.3441466138102
8.509356210586633 3109.7125209784354 1833.5179401549206
220.07540809864145 3258.7375254463773 1921.3845893645607
728.3997806670181 3195.6888051397937 1876.701644029812
1287.8874246752503 3445.7561967994106 2023.5563328502776
1261.0688945122115 3241.390776718965 1903.540604400449
1374.5696919048478 3317.2732955674005 1948.1034065252798
1422.7040971166846 3031.851548535217 1780.4865030784724
1453.8741531484823 2915.4408662109126 1712.1231134551524
-1066.145886599799 3366.417067977582 1969.069862759881
-792.1955744707857 2775.1361214225453 1623.220412505902
-610.8439980875193 2884.760472097713 1687.341405472698
433.5861992873233 3160.116124581007 1848.4012224522883
668.0842153651042 3410.439445020366 1994.8192378882795
1053.5281499558444 3272.3300268469266 1914.0368845442842
1508.4515106036495 3088.471863903536 1806.495376655091
-1480.8566050296643 3035.4559439481823 1768.3823716463728
-1545.3031448847605 3199.6280559180523 1864.0250276705149
-1255.2130783105079 3460.5753075754255 2016.0465125088879
-884.7427755719349 2510.105185644597 1462.3258723691185
-1133.8617681099172 3264.4328369587906 1901.7787076800446
-417.18927211741294 3303.315705583234 1924.4309156857623
-149.95909568969387 2933.4964217774204 1708.9832484313795
169.56400117478344 2997.437139070949 1746.2335460407821
1555.5634138736718 3430.333076423081 1998.4281285044408
1046.6464702530502 3482.252460958107 2020.5429463763467
1782.755552142783 3771.1427545398274 2188.168714903346
608.0426814595909 2953.297064556482 1706.738834292484
975.7803182283271 3366.291113162006 1945.4120749719077
1086.5368728684136 3181.0065714396114 1838.3343527383718
1609.4296546471141 3719.5438842962903 2149.5602556788363
-2085.125752381981 3673.888714688805 2114.630632541352
-1227.0794093515024 3300.346361296289 1899.6257251043805
-574.8966807295044 3029.9398316942825 1743.9841215769206
-443.2198745476949 2807.201119810578 1615.7793391841094
-431.8330221252859 3042.940145617456 1751.4668909772793
482.3715664853321 3397.4153719226506 1955.4970699603916
856.8842776322961 3317.6801131938537 1909.6027509715252
1086.8764427531803 3389.6151835687465 1951.0074083201764
1383.8597392117172 3356.681054963374 1932.0510591726013
-1468.6331613984012 3149.231670966424 1805.336501204699
-898.2738206260332 2635.6379659493105 1510.9124767658059
262.168369976323 3371.32624610896 1932.6549982593556
1255.0380823337225 2392.722024387162 1371.6578706122755
-1735.3136470206525 3504.957773480805 2001.1414258158957
-1287.4270713672834 2984.7720186951256 1704.1434788229024
-730.7579060850782 2894.4559611029545 1652.5778920327998
-533.0945160174515 3169.746252032938 1809.753767152631
-291.23812977943226 3109.825021515055 1775.5419836091978
1347.5672390246402 3197.5358082151447 1825.6201015495858
-813.5215836041058 3365.0126165125553 1913.4605014766644
-1543.7516983264181 3466.673954806532 1963.2696429848954
-415.374789899109 3053.353139411677 1729.1950746069272
616.4208714415905 3008.9755360745453 1704.0628577916086
944.4082464291163 3671.158989791355 2079.074955761364
1778.395547467326 3707.7052513631106 2099.7720754916263
-800.9771287900908 3470.0952249593006 1957.2161683663514
-710.8773879440047 3226.2130304340485 1819.6608151679131
-765.7067576708926 3559.8090322310895 2007.8168875786341
-408.9825873757257 3009.332078874092 1697.334804645016
108.33398456253606 3116.466042897685 1757.7609062286158
790.1622155936814 3346.412112021494 1887.4559535300004
1184.4257419265098 3488.3863895486943 1967.5328198562343
1273.5989772271291 3641.683768964567 2053.996184723824
1371.4042979156732 3152.1773642388825 1777.9029400898157
1460.9437502212788 3320.2818768937886 1872.717879973025
-1313.3186525006477 3166.609818812249 1778.7653739045666
-1184.3954965521334 3161.3786351908634 1775.8268848507594
-782.0802796630181 3552.8455428579064 1995.7238157106576
-644.4721517066228 3236.358933764061 1817.945227955328
263.63280950343074 2994.8526232434133 1682.2849833045666
405.46283458397176 2872.7916720777425 1613.7202387157342
909.9579693413637 3694.087500635325 2075.0630201634494
-407.9172202884952 3007.3840927079805 1682.4259029529346
1647.5321653164792 3882.719625205399 2172.1163210207797
-1785.8696172931732 3280.248460951447 1827.5653297285064
-599.1106040283797 3583.3766143336447 1996.4508608645363
-313.575754236267 3023.4194203336774 1684.4749949907753
185.1566550735312 3309.076210408544 1843.6264897500887
1452.6472436430313 3136.109713665964 1747.2595296205961
-1799.3245608278348 3049.0896009168855 1691.8101564834355
-1176.8296166247767 3108.5499085917777 1724.8021526523123
1118.7510994274137 3464.4373383517927 1922.2689532513255
1450.3288861124888 3101.554578277084 1720.920741338327
-490.6675047116301 3365.3814275313966 1859.6324494982173
-302.703436840037 2924.2495056911303 1615.8730855067736
477.81770038212346 3161.4454398552416 1746.9421086053476
911.4251744456999 3236.7179503279854 1788.5359683340462
1664.5127113210383 3980.690437558593 2199.638070303743
-1094.2429435878782 2934.9502218318617 1615.105939364073
-1006.4924573439819 2982.2598671987034 1641.14048286427
-881.5446177143706 2693.1453677346694 1482.0404948075106
-166.55239293859708 2729.0656540317163 1501.8074630206231
175.9672540297551 3153.9763577894632 1735.6362333464665
1225.7742847074785 3525.4446843735554 1940.055611940606
-1464.6009072619495 3242.941386743639 1777.2268178668814
-1300.657746563947 3639.3203772271777 1994.4541087473115
797.2951863520984 3641.951211234812 1995.8958828018276
-1820.004827061828 3644.5513758036786 1989.0573820600337
-1072.1600428831825 3442.661487452319 1878.8735675432206
-906.4738547218543 3115.248755473809 1700.184164000737
471.7889249757049 3365.416660604842 1836.7162819889618
1613.1759992808365 3779.729822786763 2062.832631779987
1451.4754212446921 2851.9141184937744 1556.4661450657634
-1737.190604656488 3354.55933735538 1823.1992903031282
-1631.3239583218424 3698.977163506064 2010.3899979508042
-547.4345109120482 2924.9156715704717 1589.6884330589612
1225.333010516734 3586.5141998650242 1949.2665015760529
1570.0953946125298 3957.2905331190764 2150.783028686561
-1405.164175004823 3417.538841998616 1849.7092375372833
-56.98767003921236 3082.4687702535125 1668.3558614431752
830.2465479984812 3261.876367723332 1765.4584565171858
-936.0133490231901 2829.2148804807175 1524.9062791091392
25.605335019540636 3214.776833701176 1732.7186469528863
893.2063239298399 3661.077998730337 1973.268579593936
1474.6993181767511 3771.1128027316095 2032.575762197745
1428.0708562945783 3561.6065359131867 1919.6548865200925
-1273.567658611802 2995.7575961376297 1607.9292351293602
-562.0246837179483 3189.600734711241 1711.9717150494953
1030.3468876084794 3069.7704308657358 1647.654545644321
1418.3070787058025 3374.6328215315066 1811.284991336897
1643.8960252773595 3866.2895093682114 2075.1745540434213
1579.6358090576293 2926.1502872861965 1570.5685264307663
-1105.228678162389 3398.955270379036 1816.705554007741
-1104.6892851659154 3450.9890952239666 1844.5170816897485
-100.19048042335876 3456.2806706319257 1847.345372640461
-81.53732114612279 3438.642085938729 1837.9177361380857
293.56491887936613 3373.3793225739005 1803.0354810792967
1056.5934001392122 3712.9220779179404 1984.5174837500233
1234.9387568020195 3628.2568713905953 1939.2648285386213
1836.728885372794 3961.626122092016 2117.4471584335165
1446.5753092567854 2551.421275870927 1363.7076200686026
-1283.8590765759834 3211.446709996576 1709.2846541322976
1100.7322375656602 3285.5977610245345 1748.7513696207839
-1812.0803861027289 2988.231343109307 1583.7921075883498
-1372.7185155070765 3201.1715423078117 1696.6525150185073
-939.6959848541295 3140.205261209485 1664.3397842604954
-297.4191121483898 3231.2128982113354 1712.574730174629
-25.246766131171622 3209.1236659293327 1700.867219030422
-8.508253756194195 3272.7406549015 1734.5848511257386
778.5380140034289 3073.053995072197 1628.7489503821055
1358.4695797730799 3625.284802122261 1921.4367289872855
-655.027109636734 2588.595725036373 1366.199536057385
73.46657004716941 3098.0016483780028 1635.0519216976495
177.60777714119808 2700.0282707673546 1425.010995416193
808.7572871174206 3195.284029571717 1686.3952592331168
889.7118254657805 3378.351783272615 1783.0140853225867
1548.1285771521532 3740.9497495400947 1974.3847070456916
1646.143832057593 3885.9889360470866 2050.9329557349333
-1708.557537250967 3000.8231925982354 1577.073291500599
-1061.9224042633261 3383.228979973586 1778.0454631608525
-703.4686178806545 3097.3098380239603 1627.781547775987
-471.01528215620976 3267.267965746338 1717.1025129583218
-257.75618271570687 3384.9993771373606 1778.9758898815016
1252.4451977674828 3752.248893084512 1963.6326653287406
-993.2947658925669 3170.3710846997437 1652.0811678909033
-655.2201410477408 3027.5935337524265 1577.6797502600123
-548.5856198265523 2958.421800995341 1541.6343429605743
622.3730665307357 3451.4921011612314 1798.5734001206702
1093.0554027974554 3432.868942342016 1788.868867386206
-1385.7055715131567 3139.5200331257142 1629.043572653081
-1198.6925476430747 2942.4678851602325 1526.7965630039478
-1061.9931532225246 3050.7578043124345 1582.9863610994173
543.329117432306 3199.8783487187447 1660.3624765095722
1099.9612947209803 3114.666609057996 1616.1475534180552
1354.4964783942653 3631.2627807512854 1884.2005246603774
-373.42968589740707 3040.189616955841 1570.7740426152634
66.00036995102545 2795.8728008650005 1444.5429316511497
686.8607321698306 3256.0768399015656 1682.3164424853712
778.9121237947633 3520.827426065458 1819.105064548302
886.4320113437547 3518.1621517081035 1817.727997883239
786.999020483998 3001.987351167091 1551.036087082693
1406.1874175673752 3539.4843465669405 1828.7445312037432
-176.60435116410468 2937.108778296652 1511.026480394288
953.04523129308 3502.655609358314 1801.9779916055406
1450.1820032673872 3894.8036478774857 2003.722671549192
1577.884090865353 3504.434058512596 1802.8929334646955
-482.2233888474992 2764.407275229485 1416.0820656509613
166.28905505811858 3027.8536865198676 1551.0338658546589
837.2593388031954 3623.2781769025223 1856.0431710447726
1243.5065573203244 3799.502465535954 1946.314983343192
1392.2177559070426 3385.642393745319 1734.312999915086
-1599.6289471081984 2761.52969680775 1408.5289253859494
-1261.5268522356575 3350.3590934496606 1708.863641411792
-614.3457661524644 3524.9590355704086 1797.9190186297424
-371.7113914339407 3315.6172682317565 1691.143438802098
71.80974474493522 3050.1540909257214 1555.742916297255
438.92556197892736 2955.727591615521 1507.5803143324451
739.2200449546787 3066.1887794878307 1563.9214713478832
-381.7565395909451 2875.4347973851854 1460.3080928305567
24.658807027306796 3135.7842426057978 1592.5282364294783
663.5157684821681 3235.6443037863064 1643.242812056462
1224.5181921847097 3212.4625038694026 1631.4697855716265
-605.034481958645 3583.8648701097277 1812.227522358433
-636.6037515686456 2962.6875283773225 1491.6338723686426
-276.9242758723728 3041.2876195733443 1531.2069145056462
843.8405961949179 3664.7292520145174 1845.0930896377872
-1570.946523894156 3031.4399172896306 1519.6226596964912
-629.8881913770548 3243.309943947738 1625.8304362662548
209.72028712545662 3222.748717731972 1615.5233524641258
701.2913669248311 3345.2221086693594 1676.9177211985461
868.051301966221 3331.8126133112514 1670.1957100232446
-764.2355925553286 3055.5614719589084 1525.047242245403
-341.8506429012303 3062.719449052809 1528.6198272931226
-291.9700882178615 3212.1422208879885 1603.1975401642742
193.0241089271193 2968.7709996953613 1481.7296485417999
891.9254384352394 3638.9366051118245 1816.212923634569
1693.575664278025 3953.8875972434603 1973.4066657342416
-1351.0762575511903 3267.7714209119076 1623.8444939929964
-1175.0428719248118 3096.726109485716 1538.8474267546674
8.872359217908057 3370.7568178439083 1675.0207386652885
212.62902897185685 3273.144572056186 1626.5145589324202
1161.062537528958 3515.831898739422 1747.112492029735
1587.6655219489026 3441.503307910239 1710.176593701037
-1861.69397653162 3258.948678951929 1612.373873503746
-808.5455917722994 3238.33376706637 1602.174588825367
1114.6666867509605 3595.0613727382256 1778.6665584773173
1444.4790500194424 4189.308615352397 2072.672025510591
-1546.6165075148565 3135.2705282820425 1544.3780995876757
451.73112769583014 3293.1553960868036 1622.1493572493155
613.4180583792144 3441.172459653767 1695.0599113071028
1275.4266724826573 3756.0451221507615 1850.1605444845775
1287.2403393243517 3271.6256413861543 1611.544185750001
1619.1999969003257 3552.409525607121 1749.8532973868944
-1716.7260179435777 3269.0462743430007 1603.1897754801662
-2118.2069828407884 4069.0243656474813 1995.5111404768231
-1238.3984482762478 2838.0816460308224 1391.83819837759
-271.96322423413056 3002.3869105748404 1472.4159871479471
-1931.7368420991756 3263.7518969590246 1593.5330417334837
-1565.1797985019855 2836.013487555804 1384.6889536648882
-987.3643847724717 3093.91458734304 1510.6096538238944
-1051.9199954319604 3402.137852942419 1661.1002466968528
232.28144565838394 3093.91458734304 1510.6096538238944
1282.4084241198252 3575.569602973557 1745.7786269431529
-1192.561488668461 3283.61627979909 1596.1406977576837
-954.8839953572046 3141.515109651663 1527.0664084545574
1729.6010348238804 4058.877094147711 1972.989035601322
-1289.3669821839585 3460.1233443359356 1674.4797526340824
-103.7676306582484 3091.0675245706566 1495.8801952511549
40.91028656893621 3156.7774632117917 1527.679628638847
72.98420318702529 3132.4737872760293 1515.9181943721662
511.7248874369758 3364.7089128844245 1628.3052329204475
-2058.56242635036 3933.307809969222 1895.0054543549795
-1280.2599425879732 2976.55726159833 1434.0581816740385
-1340.8917544519857 3188.2675995146765 1536.0568719565442
-1032.1192622707485 3192.7720747894923 1538.227056856172
-385.32443626643607 3181.060439074971 1532.58457611714
80.78596283805213 3470.24775171815 1671.9104466732435
227.96369586978778 3044.1243907205685 1466.6109551684553
438.17271533386906 3468.445961608224 1671.0423727133923
724.4688590228355 3320.699172594263 1599.8603080056012
-1800.105319217131 3327.0930013380107 1595.7920166637089
296.55812981695965 3483.980313596226 1671.0407459047617
481.7562966301212 3529.964525809841 1693.096407923691
1058.43217705047 3735.541003941295 1791.6981910671398
1467.857298851015 3203.5667842151634 1536.5444539854086
-1990.2420878675978 3376.798156146053 1612.3889768441788
-1420.5271145524507 3071.7853884343035 1466.748283585672
-808.696176318249 2908.450148920024 1388.7572614561166
-204.15997128877032 2935.5222880660367 1401.6839502068717
542.8769711487286 3250.461506797991 1552.0644293406554
1227.5430122904984 3533.8165631929296 1687.363771598558
1173.4943920785586 3076.297411625306 1468.9027317107978
1473.7861807854263 3321.751473215826 1586.1047097176436
1502.2452948763596 3183.683563571158 1520.178597088793
1914.521535489076 3483.281903453705 1663.2339525971486
-1408.731314588417 3178.2035276029487 1510.7558827064593
-1172.9631075892748 3243.2307097533926 1541.6664890022437
-982.2652177076791 3355.2219679013792 1594.9014220672054
-583.2981796603465 3295.6137175968056 1566.5666996294033
1203.0924619946202 3466.310070741721 1647.707041155837
-1786.833101256605 3367.0395165593513 1593.3203990182799
-1181.1644665475033 3025.364097160845 1431.6358055071632
-860.3744329531057 2941.3010971501017 1391.8562626591902
63.18745518283787 3499.9132907698813 1656.1977409392698
110.51398648777435 3299.2467746152033 1561.240122527979
179.77987786706646 3324.5560649410186 1573.216759084358
-1661.3607363944006 3495.5613818692254 1646.67745037834
-1286.126893214889 3338.15256187822 1572.5258260600606
-1177.8627028590713 3262.162097054976 1536.7284901822707
24.609727798079856 3175.315851542697 1495.8172491790822
159.58412078741938 3263.9713938364816 1537.5808077031704
979.6958000058564 3595.977353242798 1693.9810727882766
1347.68845372381 3497.3706786507314 1647.5297678992397
-1565.5620403071357 3431.4311314995375 1609.1551788984814
-1234.357568792135 3334.5600597006214 1556.6339352106486
-656.9538802238271 2832.563789843517 1322.2928482251325
-194.43209070169397 2807.19213721536 1310.4488943702688
-156.58468165536516 3212.2324488148647 1499.5291576961274
315.7172783078697 3325.498755190565 1552.4039516910543
446.5628609120587 3288.347406699336 1535.0610192607185
852.5430428989722 3382.5849736039186 1579.0528478644976
-1401.6286129799998 3209.4035230292498 1491.3919760973101
-1187.3352537140113 3296.4627878528745 1531.8479324989326
-833.6021809425508 3310.9726653234784 1538.590591899203
578.8773126519176 3282.859777724183 1525.526689311179
1073.8150280742238 3504.135409150896 1628.3522451653027
1065.1007438264019 3420.7036136949223 1589.581953613748
-1697.3945796750563 3267.3652932409755 1511.398041723065
-1574.0161011046873 3388.983890267167 1567.6556354983124
-340.8519556593336 3097.6438182865136 1432.8893101113392
-219.53629866834265 3174.7899432658146 1468.5750972075782
139.56089024954306 3200.2027844354666 1480.3304153098686
598.0799467847061 3210.1864006092583 1484.9485759929114
1197.7164899465383 3621.3298666754145 1675.132829576397
-1090.2913415054345 3507.981405159773 1615.2741132864307
1442.5202034075055 2879.4150839866597 1325.8464368508508
-1273.23076989539 3320.8014068816474 1522.0666923800916
985.81921039117 3570.7933003643884 1636.6487729726252
1082.7079061535135 3541.7033345773057 1623.3155854127667
1122.844502049174 3256.2580452915577 1492.4836824816557
1341.5838989131173 3683.5169177893335 1688.3148747670766
1421.7377884976252 3449.8881300618264 1581.2327121769636
-1272.1226971901683 2986.83156955273 1362.6907848529604
-692.6120001711503 3134.2171054246587 1429.9329131338557
-670.7657858704904 3179.7064683480935 1450.6866564304285
-253.46394572063917 3200.6315752928735 1460.2333783468519
660.623214433466 3207.0000861021545 1463.138902408372
1150.711750770549 3539.982222701697 1615.0563033392839
1306.3503737789774 3172.4281702803437 1447.3660575029767
1714.8790868714443 4025.808618723981 1836.7062817466797
-1288.3461394803526 2554.8919431079516 1160.2427155738048
-1724.9548177571842 3483.6124641236715 1581.998798925651
-1392.5237058472358 3308.794483697183 1502.6094185300094
-762.576869854622 3453.565623737869 1568.3537491701502
-8.740255276004026 3464.4917475145244 1573.3155854448778
233.02355890329892 3144.90262704735 1428.1818744090954
757.8854136297513 2962.8005641030913 1345.4846031636353
1213.2850337947036 3626.5625835349147 1646.9161568533373
1297.8386221453038 3389.829901707378 1539.4097042342391
1512.62775635221 3763.139130743109 1708.9391102874324
-1269.0227941814808 2984.280206490132 1348.9613223333035
-916.3387209955197 3054.444962490053 1380.6773595301477
-725.3289646669085 2838.4833109058814 1283.0578684177835
-91.8306215056659 3273.140305866429 1479.532540403428
412.3538569623336 3053.5337318926513 1380.2654629431756
1159.1523272692061 3190.2183215028863 1442.0499509889758
1631.5662423052245 3753.358830697055 1696.6020417376726
1577.5923847621175 3409.824895476664 1541.317028449228
-1529.6659380243725 2883.579905845332 1297.3861902321235
-1747.2397015097415 3635.0251438012315 1635.4779741509312
-1204.6471570006254 3363.264608715239 1513.206916374469
98.55425370348097 2968.3910795466654 1335.544607591892
-977.9309184295249 3161.4640544721356 1415.782833728608
869.2463271933624 3773.86081560112 1690.0294507701485
-1681.4880820349645 3503.7056641727013 1561.7114390450402
-1255.6892149495663 2748.3447193680026 1225.023388969376
-697.4807590370956 3485.4381685305075 1553.5690436381317
-1238.0968887155802 2953.4052380693424 1310.2513116744326
964.3214667229701 3171.871301795301 1407.1717893872737
-1717.7582108993029 3275.8641743099506 1446.4698100799012
-1554.4045746811728 3514.6244506279895 1551.8952835316898
-628.4992427742388 3311.5409972080483 1462.223041745111
-91.39601110321703 3270.375432325628 1444.0462359775613
-1722.233203560514 3434.017717126446 1509.1465530099038
1176.8718137200956 3756.271579144177 1650.7673439081939
-1217.7127443867494 3415.573964250265 1493.933899051671
893.651467148052 3585.0699898367184 1568.0695673254263
1472.00310574609 3684.9352157227913 1611.7495016056387
-1400.5094948127507 2929.472332175462 1275.2320788854322
-1239.94998878852 2620.6312467049775 1135.3536316027344
-1063.0918256252792 3112.458399447928 1348.4312039203342
-617.4877105661582 3445.5428331152625 1492.7356045757238
-1187.0868885018197 3429.7772910639333 1478.801113639744
587.6524356907713 2810.8563019937615 1211.9438310177393
1460.7406566551758 3423.349328269436 1476.0295988350645
-1388.7668681557748 2968.273195773063 1273.6774455313123
-499.92250872148986 2959.083495476552 1269.7341717061379
-427.11681099345276 3075.792689242242 1319.813749285852
508.6403814975816 3533.4397640084912 1516.1887857795343
700.4902369933224 3275.2091856765314 1405.3827912921354
1160.7808926965315 3662.0955681596456 1571.394619331975
1028.6382709160293 3459.749110127282 1477.423465013833
-1760.8506128917256 3561.7192458752756 1513.6234715283917
-1567.6274255845858 3492.693679094747 1484.2896833204773
-956.1928466284068 3117.1945958086712 1324.713875469422
-810.8700303423926 3143.884481630476 1336.0562735764822
404.35534884459213 3024.2401658775593 1285.2110406827637
422.65436121840656 2940.489144850518 1249.6193776571606
738.7461422208494 3305.864478342116 1404.8928965710552
1484.339740288666 3918.81151135321 1665.3769358573365
1247.5917880312923 3100.6284597813446 1317.6737662995224
1494.8977749160583 3364.766295328167 1429.924395841809
-503.51887509227777 3509.8356452756007 1477.1315930386193
591.6701814398052 3410.2919872688344 1435.2381550007592
683.8621587142461 3363.285259876751 1415.455142593992
-2016.1219162396408 3522.5545168109516 1475.2527499024575
-1485.2488492375767 3615.714507959919 1514.268337160941
-604.0190236496069 3208.946625814428 1343.9131492303352
-1515.2955844197454 3531.5852947983803 1471.7952661847496
-1403.3488205256212 3539.8927353768395 1475.257408734583
-81.86014756713314 2955.6027480251996 1231.753382729631
520.8920069870559 3290.6695180230595 1371.3931322395797
981.5526812219617 3610.044455817163 1504.4932791553988
1158.4541761288622 3510.3551688756506 1462.9475685573975
1208.6772709940178 3610.044455817163 1504.4932791553988
1545.363638546521 3992.1867224262924 1663.751836447737
1332.3281583053083 3400.5123434493553 1417.1703503984886
-1519.1681488091754 2976.222439395945 1234.254427270184
-328.5681025840046 3039.0353276265237 1260.3032482057433
163.62584239694016 3818.654116841352 1583.6150845235693
-1205.0672374791268 3554.264639722173 1466.706470572968
-692.8950874032331 2698.2830905979254 1113.4762516521441
-623.2502759159843 2865.596978709684 1182.5201713332121
-241.058312389343 2739.8804660953238 1130.6418670424648
386.84391153761584 3141.9884292368442 1296.5761491488995
809.6849566518082 3412.8335630310175 1408.3433782458774
956.1797005298657 3232.578269208957 1333.9590448878205
1229.8744776178066 3527.457442179405 1455.6441850992057
1130.716632083966 3075.4326284410063 1269.1111645243861
1516.5404808672351 3699.393260901986 1526.5953953791986
-1762.9894587917058 3235.826592755861 1328.6949467857532
-726.3060172916015 3196.9744724311768 1312.741491163969
1189.516444913315 3560.5193126121526 1462.0202544820938
1285.6293878281426 3591.9710290654684 1474.9349566521098
1361.7962743580679 3362.558509053046 1380.733599647288
-1637.9462175729639 3633.419709167987 1484.5491628873797
-1542.6200170029106 3997.2245360986926 1633.1931937191607
-1307.7366133718872 3473.2715283562516 1419.1155309945093
-515.2034613059318 2900.2557831396953 1184.9917267073022
1253.4019505911033 3600.094076166701 1470.9329157882853
1281.803011987183 3403.8431262702393 1390.7483495380625
-1213.994402330496 3747.169691138456 1523.3989319325806
-905.0668434007864 3672.133660240504 1492.8932920100742
431.40778285245614 3822.2057220364077 1553.9045718550872
535.6493962453147 3396.075176196188 1380.662666122334
1191.3707184049958 3571.1592482914084 1451.8424926081825
1273.3789919101305 3562.8219115249694 1448.4529770612373
-1487.8505178697526 3031.37715842848 1226.2351011767994
-1625.3168107722554 3341.9310875029573 1351.8585748447588
-1644.4597579057277 3690.4931093895348 1492.8568617079015
-1149.6847422047397 3219.5635691810735 1302.359176265145
-505.45086826973454 3110.1744240145413 1258.1097138985203
689.4836563896113 3252.0095020694516 1315.4840167976183
-1798.7667559612055 3539.0981783308152 1424.432899134075
-1326.8728239872432 3248.734422153215 1307.5659273309384
-1001.5078666444662 3095.667266340742 1245.9587377222563
-368.8433676671029 3776.5841897731975 1520.017387254212
713.4494341214161 3218.12099099072 1295.244489409202
901.2058781994839 3734.8386018243414 1503.2154264518442
1346.9822740018615 2963.9367443687956 1192.9392169681178
-226.0633927396713 3343.844604408895 1339.069550682682
25.310859644178997 3351.271244285428 1342.0436085409444
138.88802152173756 3257.5099158442013 1304.4961280803807
189.75135559541926 3603.7770000875435 1443.1615757218688
404.4514806244767 3170.246897294941 1269.5509482457965
427.61254937156355 3225.946696368937 1291.8563821827652
-1737.190604656488 3546.8357478760995 1413.1808722128212
-410.5272724726434 2988.5203250176564 1190.728880541814
116.38788056411086 3570.9891605122384 1422.804419273464
-1519.3668938425799 3132.8261527104264 1241.8938347916805
-1160.707179868446 3394.979557774029 1345.8149212638627
159.49476386085857 3033.356598306861 1202.462784250817
882.4680896916835 3819.8168134976686 1514.2260436673637
-1365.519605268425 3352.6706150828886 1322.2767285102332
411.88235241383694 3366.624571582956 1327.7801000217908
935.5948698680735 3736.869550718081 1473.8028907951184
-1683.0000277391184 3059.8771611798416 1200.6334821626426
-1842.4767629333207 3575.597254667409 1402.9915439570157
-1116.454442144289 3181.825414333039 1248.4834931645612
-878.124893975637 3580.2517681465383 1404.8178802547989
269.2354863866186 3265.6066569573727 1281.357546524658
930.877429106941 3794.3593881865027 1488.8293499528238
1057.6373018741763 2598.149424050179 1019.4609214225543
-1167.1873012454043 2902.6748674265305 1133.108385817691
-558.183719756679 2994.8972075662055 1169.1089410795496
913.002710949178 3651.6320540154043 1425.4765315806637
1385.9796751216268 3259.454223724464 1272.3832612246792
-1876.6250536922514 3241.1622008984164 1258.7281626575834
-1642.913798609762 3493.780825127197 1356.8343841359283
782.6587216755365 3194.5535986421837 1240.6273837870401
1041.6231128106485 3234.636996582544 1256.1940536157074
-1222.806954462832 3232.160528757751 1248.7446962211352
-925.946915857952 3266.674219829623 1262.0790551706825
-668.4627273782312 3248.950973062986 1255.2316816560501
-177.62024055923578 3098.7697767772725 1197.2092008215327
7.5947772051274605 3005.4895306370777 1161.1703928497827
534.8890534721926 3310.5159355155147 1279.017294917405
577.5980257731288 3369.2824905838374 1301.7217439396074
951.1997631419497 3809.565252365557 1471.8249175662672
1093.9272463003306 3081.979332472037 1190.7222153866178
1325.9755982996855 3463.958864342569 1331.3564459387044
-1517.0880397357469 2929.195751226952 1119.9590398733224
-1188.5382884633082 2963.7557776285453 1133.1728423208074
264.2468014906294 3215.9505648834165 1229.59788720786
715.6242853234249 3400.893408870322 1300.3095867916984
864.8573855411072 3761.4385491680277 1438.1616880005959
871.0791170790626 3493.3648308637753 1335.6654365836177
-866.2521705001473 3546.163224241315 1348.7632805790793
42.20513738420622 3381.660133185313 1286.1954531194278
-852.3186600604814 3235.1878008996923 1224.026508254545
-295.8738665561504 3402.60572988525 1287.3687299884461
35.835871211796984 2873.2283678415306 1087.07991713153
67.36358064273713 3004.1697648134755 1136.621319604972
1226.4186772744001 3511.1000302334332 1328.417320609298
-2394.1917035923693 4376.323962632334 1647.0472288583658
-934.4078813940613 3307.5125928021107 1244.79574567696
8.825215970203976 3504.0540881299103 1318.764932601737
1032.017366525363 3217.6650520808307 1210.9812602256334
-1573.2474494068733 3298.441829841267 1234.8139516353847
-1292.6816375749938 3430.4918860614885 1284.2485817264094
-57.34536725486505 3303.124455948367 1236.5669527024422
72.66961610432259 3245.0598922203267 1214.829739470928
1034.417544020602 3791.9906215296114 1419.5802641032574
-1404.3935995866443 3554.5557385795314 1323.624758506474
-318.83070764444483 3297.7805547222174 1228.008311411622
613.7378800989115 3596.7268454174114 1339.3281895986943
-1680.708881616385 3665.6387118343455 1357.7090388965676
-1455.404462578822 3522.1639809797393 1304.5677027617057
570.2421262200934 3343.9927465851306 1238.5751938360604
930.5437825725274 3606.5608814824486 1335.827312252801
-1670.3898708313268 3645.482422115739 1343.0126246782504
-1506.5533814495798 3457.812799355598 1273.874265621455
-1122.9970489989316 3141.5894850047603 1157.3761306107547
539.7074575831183 3578.859706035889 1318.468507213088
857.3374946438582 3454.059406900395 1272.491498440319
642.4895041185833 3299.4704065140077 1209.0041507531273
784.6092796694155 3582.0943656377176 1312.5642672519011
837.9267142770772 3445.0076612122634 1262.332449946848
-1466.5811680884258 3479.150267743948 1267.9599419765655
-831.7529946515965 2683.352191379075 977.9350781218122
877.600565014414 3540.220958374074 1290.2168677741556
-1182.3669646718142 3314.0121151508547 1201.2279969403637
68.85262616752989 3086.496957174541 1118.7607131787843
534.0471801045329 3548.1082900934257 1286.0806980008322
1031.740507385474 3329.9945849260503 1207.0211532376647
-1737.190604656488 3591.7400180381806 1294.807955962232
-450.6091530983511 3097.8522470926473 1116.7633837044602
723.8792207762082 3464.740305509329 1249.0250659530907
-1431.4464674539706 3556.3412495165053 1275.0376139500288
159.25036489692837 3066.850129943032 1099.5427597271557
203.0883557156641 3286.179804674992 1178.1779540231737
239.2977890648527 3338.8942329367505 1197.0773998625602
1096.5919228622968 3490.448214189307 1251.413306650796
1270.3993900600738 3518.6880864723917 1261.5380097790385
-1752.644299083022 3328.7335238988844 1186.8821031895775
-1398.1443829197938 2948.199187833477 1051.2000517779788
-927.0712323701579 2786.18952000365 993.4344259294766
-457.9769038420108 2623.237935500394 935.3329534190643
-360.77105247715593 3113.9765223570207 1110.3090642741208
-1703.488723020108 3087.6345913601285 1094.8463957269867
-1401.6078029386945 3133.8171600343185 1111.2223033553817
-1206.3048635521454 3070.669566132875 1088.830756190025
-1247.8696778027906 3252.5723366250922 1153.331780114112
-984.9092694377132 3510.8177206399505 1244.9031819545253
1393.3550826523717 3767.1781018517804 1335.806179401943
-822.6233614255066 3538.4483861779486 1247.7527873560014
474.4727596424216 3162.15816600604 1115.0626588498594
543.6969234852264 3206.483079159122 1130.6928243631144
785.3242642624787 3682.740124740109 1298.6339644523416
-766.025877612236 3439.648875163412 1206.167739407366
-514.3758902206807 3547.226370847535 1243.8915040966501
8.537642159209081 3417.9446435780187 1198.556804426195
479.4051346026621 3419.831968063705 1199.2186248593403
583.0307199642823 3253.747413323304 1140.978426742551
-1759.970643895432 3464.4105155107636 1208.0648906488618
-1658.3233373716764 3714.633678936861 1295.3195093520367
-1500.9872595072106 3919.5334014404957 1366.7695178750137
-444.7272441924658 3290.670658641322 1147.4805516247707
806.6153590729875 3703.3028187062455 1291.368356806987
1223.7813891680555 3686.306528360322 1285.441627989413
-1335.1585644884801 2962.9291335256003 1027.39814565982
-536.9100865508673 3084.809828112591 1069.6603780546277
65.32925084125971 2943.088090220741 1020.5182473629909
596.0983023458339 3626.1868668594557 1257.3833172966804
667.2247894175458 3536.4297661946175 1226.2599678586437
-1901.3384832736822 3845.8137371273215 1326.0243962019658
-757.5710863783576 3136.7772811672694 1081.550871828447
-245.8567065968232 2857.889608489649 985.3912855748629
22.267947432108723 3002.5330455054996 1035.2638845470608
794.0698371700165 3650.119675282347 1258.5497034748746
937.718285693679 3409.9926621972095 1175.7546698870428
-950.0077866012626 3398.79625462395 1165.2609233790563
-419.9705482460272 3113.1195307451767 1067.31803474547
442.2559719255825 3399.742204040767 1165.5852375798297
863.2494149779238 3196.363079425084 1095.8576844135348
-1726.009459540179 3190.6987305019165 1087.6960104613129
-1471.778085046688 3806.8793515510856 1297.7494375779888
-590.129537621447 3217.201122805107 1096.7305664663313
-347.7428976284206 3295.7617857038485 1123.5115717669212
-1339.5714593361174 3135.767714196003 1062.8649220883967
-1033.5465047258922 3467.24421675372 1175.218507932836
-611.7578879709536 3169.862440173368 1074.4212909181106
-339.85210082654373 2719.054396694873 921.6204141696729
255.7276626682478 3155.656304349466 1069.6061372390632
1107.171072372329 3345.0714486681613 1133.8081862930285
-1459.1718220161354 3454.1279252797176 1164.0555295186027
-1261.9056254778197 3612.382894695825 1217.3881148216499
-121.2759683126921 3295.8729558636096 1110.7229442155556
143.32103902257387 3431.384696142073 1156.3909663612785
636.4472159478157 3218.1669229766585 1084.5356867613648
907.8003827904636 3555.524821851715 1198.2267069283396
1374.4268321570933 4275.727077877115 1440.937873576937
-1504.5516954841958 3025.675842584353 1013.7882893392797
-1851.6877782379656 3789.917374744488 1269.8564062955502
-914.8328448204579 3457.102513965074 1158.342871492013
466.68987810936665 3127.132224645314 1047.7824438235489
949.0705577749968 3291.169178818643 1102.7449552794233
1138.6246368119967 3260.8270832490102 1092.5784791719782
824.2644372574339 3357.603378673036 1118.4903001472182
1070.4801987944902 3654.560105862824 1217.4130082416175
-1856.2293243938973 3496.2486901271427 1157.9007283805627
-1354.587589479906 3355.7532228073446 1111.3709136099073
-1137.3163322538803 2950.4048137157642 977.1261101837601
-391.7628791267362 3407.9643762032156 1128.662398828732
-1820.6487286653 3732.875000910073 1229.0419958571877
-323.08903195796825 3387.132888866494 1115.2070629075652
600.4502645909313 3784.1664131363186 1245.9295958002635
-1735.3706040230081 3624.769697509083 1186.440322991389
-1344.569273800722 3261.722496552484 1067.6096456493044
-121.24109885659298 3304.489836979308 1081.6080238702305
763.9179837024382 3380.520664404774 1106.4940295963215
1041.2002641491463 3449.8987944305118 1129.2025098213796
-1089.1620910222596 3668.6756848522828 1193.7264005514976
698.2419182870764 3724.78036743556 1211.9819364852815
944.3518570552505 3932.0824149466534 1279.4345946812966
1213.5863133925725 4023.37138999741 1309.138517556606
-549.8500281397829 3013.2909451864625 974.6623413558549
-318.32098005924496 2775.4245933403568 897.7234132412469
-318.2870917746333 3342.497976141472 1081.1458178664725
7.821064794107049 3156.96222170151 1021.1334539370782
293.56491887936613 3639.3551832454114 1177.1656001535034
-1602.729088152147 3415.7799216654266 1098.267511468554
-1325.3723348682524 3220.619697601488 1035.5181135167552
-1449.2362838509207 3600.4681337064226 1157.6498685546462
-1148.7142176208488 3698.524246284889 1189.1776148426231
-627.442925587098 3351.9958484347735 1077.759171650161
-1594.6589624692003 3369.11232876664 1076.7781183477994
-879.5147212352316 2876.6523135072807 919.3864623721669
-295.00221201770745 3101.4503088674523 991.2325567827071
776.1595707339363 3442.4574374222893 1100.2194288122553
954.8125576923909 3326.248304227624 1063.0786511932472
-1574.8115627987743 3128.908332981462 993.9927785447782
-1640.3432618582 3315.7088304728927 1053.3356309952128
-1599.61832028293 3381.470230099978 1074.2267372150086
-1465.4791473570565 3604.487150574441 1145.0748365690988
-1426.8599677223447 3760.7896076591073 1194.7290600480337
-1151.8148087699803 3769.3671815235098 1197.453986946268
-1045.9164518284183 3646.421956133742 1158.3967014049106
472.5120765333135 3527.2889857948194 1120.5504944849906
636.7424386319726 3404.343760405051 1081.4932089436331
-1077.0440634216156 3061.9798776368534 966.8506756200775
-908.1375987909058 3167.8284501742846 1000.2734177545616
752.267115669768 3827.7132447319623 1208.6386209713457
-2196.1422287396977 3969.11764973051 1245.674549229352
-1004.7436384972016 3291.6961277813125 1033.0714410676117
-676.7532154762324 3007.369911526579 943.8380238391628
-162.4593678782604 3509.234306660773 1101.3439884772972
485.75487148481653 3503.5096177428927 1099.5473424928318
609.7826849654573 3349.8971317797645 1051.3373419096765
950.4649606006894 3371.84177263164 1058.2244848501273
-2171.883302702712 4018.0628790219826 1253.3362279235282
1262.6580593794156 3293.4941631327724 1027.3247769864986
-1481.4954341741002 3138.6368687668 973.0131581935244
-1524.274520531319 3842.585551749494 1191.2452633635266
-1384.442960655653 3530.2501116744047 1094.4177214495637
-810.4264071668815 3850.226785757447 1193.6141328904737
-1864.373609278156 3231.1189281114284 995.5056365486106
-1856.8883499037456 3607.6527517363625 1111.5154622806876
-1504.4160894761276 3751.958861805817 1155.9760807719151
-61.117446983566126 3592.362038086619 1106.80440336771
94.55758350721077 2984.556170509314 919.5398115768444
678.3351455460539 3223.4735712865563 993.1501070921217
1124.0786612085108 3687.928998397516 1136.2485215738209
-1964.9056912753063 3788.3932586783862 1159.9657398389645
-1437.273307856575 3469.984637996937 1062.4724053194352
-928.5262097906199 3144.8827430068686 962.9296613655614
-991.2916939645322 3846.720363367781 1177.8248791953947
43.60497610341704 3574.2084808025766 1094.3846379399417
925.1139714005446 3797.955079119271 1162.8934676023136
1366.0901200501337 3370.5417054117397 1032.0240365806033
-2158.743901717296 3854.5103450850575 1172.8559159727472
-1577.6905017676875 3691.8727777818904 1123.368324581492
-1243.3307955212106 3212.5703000237336 977.5254817166754
-813.0400373562065 3868.860718670631 1177.2224681543285
386.9704809347892 3540.715509347182 1077.373974935502
-1893.2882804713952 3684.255819477702 1114.0287503671914
-1374.6129655698796 3472.715020281918 1050.0639922920682
-465.3257885018084 3049.6334218903503 922.1344761418217
745.5050057928319 3548.3336770080127 1072.9292225542163
-1517.792986086771 3880.608036598866 1166.012549797084
-393.3572034296777 3182.443362689544 956.2338852358613
-166.7439134693945 3615.3246145510166 1086.302412508389
955.2203499859299 3580.8473467036424 1075.9429722831433
-905.6658040084067 2934.9747646294513 876.2945457939908
-807.6117285014544 3849.1001075796626 1149.224678568221
-92.95549548847472 3484.0248919989176 1040.224279630085
979.3281984817713 3376.7061934554968 1008.182167606276
-1620.119903858506 3543.3571501269403 1051.2069761204432
898.2025719633106 3312.310322967689 982.6623653939749
-1130.7289319180275 2738.5030649347705 807.2335246648695
-1037.7153296238046 3641.106001573516 1073.2954324440786
-865.7955272895515 3637.2692196961993 1072.1644572781734
-684.9048930420513 3126.018034543754 921.4620164212994
548.3027265516587 3489.553117419508 1028.6219133908214
-1326.6977246764527 3521.0933976944257 1031.2430774132363
-1138.931266446967 3537.40808500999 1036.0212546593593
-978.2132310503187 3325.3171499076548 973.9049504597613
-892.4259364322793 3353.148087093029 982.0559587031474
-123.85630806402597 3408.8099614637777 998.3579751899198
39.020504298001605 3210.1546512095542 940.1766404871288
237.40877353234188 3377.1402743218 989.0826899474458
1124.1619963131313 3347.389962158124 980.3695432045158
-1337.0142987458846 3683.2373823538665 1071.7548158189163
-489.7742218682019 3685.1577355250624 1072.31360352268
-215.6451464335121 3299.166748114673 959.9972750661617
1134.2902630518693 3333.7331051962 970.0554537339096
-591.505537924493 3455.503937579095 998.9502176662124
485.79331459959235 3297.9552454014547 953.4045307890207
1453.4441400892842 3247.040119270876 938.6854978348063
-1368.281327385036 3636.9764731501623 1044.5372821264953
984.2606364922409 3247.712342170824 932.7408764020686
1512.222332199553 3630.2484511332354 1042.6049985707646
-1781.095897547167 3371.4618773523675 961.9151779443176
-1303.002753195925 3307.0329139232153 943.5328856105272
-135.990878786515 3750.3426473685777 1070.0140313698912
562.4699767704205 3588.7894256357777 1023.9211192493422
1310.2539797803684 3526.2837148463013 1006.0875520598439
-190.34559192982522 3425.0892004000207 970.7543300460458
666.696172324349 2924.795272251703 828.9587537471851
1162.0280762412865 3566.518445472718 1010.8388487305314
-1278.9688613598944 3670.3105446024238 1033.3390083512095
-837.7017396268781 2902.1731686274084 817.0776580589815
-1350.9339358222037 3284.9624946600966 918.6633815911653
-1147.2739534231114 3575.8035012233768 999.9991603189671
-735.973284882867 3372.6000165053233 943.1718447177545
-339.03509747243896 3603.7319422509768 1007.8095496670011
280.21059315779496 3516.09442040575 983.3010865404118
399.3631319757264 3379.3413643395716 945.0571111121076
-1513.4273120746236 3295.2325251759116 915.3374268666086
-1091.5301904601483 3611.2665217424906 1003.1241742386107
101.97564561392439 3245.1295745007224 901.4200156978765
263.8630564986302 3312.575854255785 920.1549922711697
1166.4166365508029 3585.2515281226806 995.8978261317692
1166.6155560356974 3145.887191432559 873.852835882888
-1947.6381441405736 3504.0816174641473 966.7662686243472
-2093.1980617675245 3822.196317261443 1054.5332201088133
-1483.0213936284886 3113.6681222583757 859.0522827115932
-996.3901995858647 3022.089648074306 833.7860391024287
-1043.2965712844757 3740.2576824651696 1031.9265810900872
113.511489134977 3613.975786485031 997.0857609553447
510.9815493792974 3480.946002933435 960.3832176072951
-1933.6616078451336 3760.3775229806524 1030.418305670999
-528.128704087426 3487.4391185170657 955.6277489885438
-471.27176534185276 3321.5542931893738 910.1720042910798
-311.8956234862113 3698.6529368122087 1013.5045402021751
-63.91398885139623 3791.2398160648745 1038.8751884054109
-25.545667822702562 3544.3414713910997 971.2201265301156
-881.0880721960783 2791.474334138168 759.6841724347505
615.3369886973975 3712.9599854005082 1010.4613534493329
1483.714716731638 3911.7307122696625 1064.5556982545727
-1759.0758324812414 3290.9234353963593 889.4402410274815
-1571.9293095905612 3529.3681665617746 953.8848698141603
-222.67432466417372 3425.10893188216 925.7066515592562
213.73435087348895 3546.744705675044 958.581239523311
1104.8875776616999 3264.858626726456 882.3956864637555
1547.5917369816782 3616.2508621281204 977.3667183599138
-1169.2885308696639 3553.2414286354933 953.6856661544191
671.6812734505244 3639.1991582219457 976.7566159472278
-1956.210966783283 3527.845003280837 940.2715739755369
-1315.5213393117945 3280.480357748135 874.3418224176794
-1385.1401149627304 3614.809136475927 963.450002257596
-1167.906984038629 3321.063619905844 885.1584222826403
-1005.6173286176339 3336.523910251638 889.2790317550065
-1026.7710018268424 3514.317249228267 936.6660406872164
-870.6862347002387 3181.9210067936992 848.0729370313455
341.8012705149489 3158.7305712750085 841.8920228227964
1184.6214931621125 2986.7348411780517 796.0502424427237
-636.6156928003679 3367.072397258904 891.1298848188046
1468.6711864489298 3925.83433972679 1039.0119041771936
-1793.8390115055045 3711.9648217772083 975.4799648831838
-1008.7057350080204 3689.7201133611384 969.6342016751813
7.630134640905521 3130.7009192529504 822.7276306219036
149.5747601398251 3654.902308883812 960.4843114365689
166.33793485090462 3291.2496843428453 864.9187911666165
505.862371611639 3698.42456448047 971.9216742348345
499.32021249742854 3204.205173149529 842.0440655700854
-1668.6700357004836 3755.2686455254366 979.8563159634953
-1439.5460592588395 3304.365479121197 862.2028649872034
-842.8750973745053 3193.091092562211 833.1682150681614
-674.267955997863 3569.4888001399986 931.3810743595295
335.07324223682633 3768.8150925847913 983.3909689971179
535.346652960243 3063.4322421369575 799.3365360320603
-911.3051399222016 3124.841318461604 809.5373582702315
-570.4084773424702 3556.588291210636 921.3879350324754
-442.83758592549634 3621.4471413769706 938.1906001514673
-374.66124102349886 3808.2793515576054 986.5923071360256
942.5821355130927 3917.6681585545575 1014.9311303964148
968.7534771034758 3486.8892283453215 903.3313396807231
919.3012714465663 3202.284721645287 829.6002419944008
273.30318330180984 3448.7528977768725 887.0312565381367
452.02189429837097 3309.2919549855583 851.1614163411439
1001.2824912400176 3489.4290060910057 897.4932932622596
956.8796066519714 3181.4527574268536 818.2807294939004
-645.5377288025678 3700.2751144356575 944.8412975141293
1209.7279287544127 3241.0108032959606 827.5711286160678
-1165.7872620215 3125.1598227309564 792.1818493175771
-56.43486525138548 3364.5873897950214 852.8732006765849
73.36170768626852 3390.7596339680167 859.5074779506466
105.09425947919583 3364.5873897950214 852.8732006765849
837.7926582536942 2876.0388318991154 729.0333582274352
-663.2229578446388 3704.520452457672 932.1631924308132
-628.5054673192694 3706.459991961576 932.6512359870596
615.371091948989 3959.569897221119 996.3409200772278
1580.3010734235706 4628.711026068186 1164.71594698227
1660.89936308817 4739.264777790744 1192.5344296883204
974.6537422998931 2613.529481511368 657.6386920421575
-1689.4566933223525 3417.0238774472423 853.4821737771767
-1703.116699785309 4000.110575444344 999.1218064972458
-1310.0369632528989 3141.488732303853 784.6607832738496
-811.632698023493 3916.673876562895 978.2815262744073
-662.2046095365297 3515.0134889242922 877.9573865970219
-337.95576265783325 3283.137081567708 820.040793884715
98.91758735768734 3169.624363322016 791.6883196280626
143.75642466997743 3523.7452364816536 880.1383461552259
823.8373307513502 3721.6648477818344 929.5734294745173
824.2026933756829 3572.2549451336586 892.2547881452483
958.7785905931946 3145.3695089960133 785.6300986330514
936.1969031572595 2481.756694636583 619.8771722095452
-1269.0371740976461 3490.333836938628 865.3240472339108
-1092.2740170618633 3431.1262829749858 850.6453022724902
-377.2491011535173 3355.418263152624 831.8757595349359
1038.5467933175246 3811.6076133642914 944.9742862868653
-1667.5938049498268 3729.7421616721053 917.7714352961139
-1663.0482254027781 3909.3834790137716 961.9754747467208
786.2545940173461 3712.2635470118353 913.4705017279467
1301.2052807441921 3670.5090786567453 903.196049315103
790.9931906307035 2074.128939685399 510.3774500891693
-616.3874433462033 3745.9100389542946 914.8190969046475
674.8664383474925 3498.190365735066 854.3214647182665
-2032.2947677373302 3686.2736690075317 893.4402258583124
-1868.86221516513 3547.2973614230136 859.7566106994042
467.85119790235524 3695.020429624739 895.5601736655163
828.6897054992794 3457.8860306693377 838.0860331146521
816.055604792409 3340.2906934824377 809.5845125955759
909.8876213770474 2902.9526626220663 703.5871222353754
962.986033346295 3028.3228981353727 733.9730408052995
-1125.6447649664408 3541.98661272627 851.927130256975
-756.8485723989469 3356.282675578118 807.261173112017
592.1617115182472 3404.8962716901997 818.9538320504877
-1287.741003415548 3549.3041821114803 847.1368383242194
-942.4491876664579 3299.3257839742782 787.472774896068
-813.9665228869334 3467.5991803857023 827.6357436628781
-1594.6793147227722 3262.744947734863 772.7253108515486
466.8945322567759 3558.561966557231 842.7845099266666
-1948.2246840884584 3565.8683805184855 837.9449223060382
-1482.946629209134 3494.8041184988706 821.2455012499801
-1618.9827382741753 3856.568041549946 899.1567943888396
-801.7946782337626 3561.482153522261 830.3576760302996
557.1128108297685 3834.168782722762 893.9344190678943
569.9836384064631 2824.2543738623344 658.4734100322311
934.0159399701953 3560.508272703688 830.1306162337368
