# .PCD v.7 - Point Cloud Data file format
VERSION .7
FIELDS x y z
SIZE 4 4 4
TYPE F F F
WIDTH 849
HEIGHT 1
VIEWPOINT 0 0 0 1 0 0 0
POINTS 849
DATA ascii
790.5477842509076 3312.346119568855 -575.6797583528072
797.245150665423 2862.0909810467115 -1571.1970647283788
942.3924156860721 1038.9724396092492 -3574.0481627605977
924.7412330663299 -847.119617350597 3423.757782597913
1061.6103409139178 349.2966570129705 -3773.8696116055153
1113.694710799432 2976.0755714495517 2078.4307044068664
1203.5697778793017 1766.9934591464228 -3378.8612157550597
1210.446034603408 -3445.2753410939526 198.6927881176059
1271.3887161633686 3408.8147561880323 943.58410223717
1281.493031899364 3073.5745050188757 -1065.4336028575283
1346.69948366896 2030.3050093781717 -2659.619816607987
1417.8949934092068 -3175.023685808011 -1349.7127822459531
1450.1893117675925 2450.8027000762077 2245.560536992751
1542.4394365925134 -1461.6566699898917 -3146.032545774767
1569.0307836660538 -2877.374975564402 -1928.7325501467944
1722.2421293731497 1137.5872613047318 3556.494232093903
1779.766694521312 -1527.3411552788361 3469.7132439715406
1636.7510217554393 -2994.6709761091624 -1543.4075109475775
1771.1053106914549 1735.5067176711134 3071.612025129222
1870.836219260497 -3644.78736571785 412.00613915757896
1985.597526927208 3821.2954843984344 -299.31558749275814
2001.8286662997662 3525.6290392836086 1433.7279649083157
2233.138494870701 4147.810788629905 -541.4375880241128
1905.8364950142563 1972.3213034424 2793.984372896039
2234.4444985456294 -3777.46948139995 -1171.6438524961384
2214.3328378785664 3682.9773466565443 -1178.7140722052661
2133.072680569385 3591.009798203942 523.7266741376499
529.4320666696882 894.8898263482208 -14.042745402921444
2224.6000417856185 33.329620292395944 3736.851366646948
2239.796221547238 3709.7145162704965 216.04214350898764
2449.597075221379 3894.4917082504376 754.9988969320358
568.0878062363157 787.1961490588089 444.4527229154766
2195.037768155027 679.3550044457018 3405.907482292286
2390.0261110446118 1404.5557768054045 3465.161478177109
2450.2975632836865 -2923.358341541378 2413.639784006811
2429.4178056352116 1412.9691395893822 3439.046700841389
2586.17275084212 -3024.0373273960336 2422.9781762359016
2705.975481373482 2150.4936658917495 3388.147870586445
2787.93438415598 -3350.765316843348 -2350.5362774140917
2570.115646362745 3388.0718575020924 1574.377682896427
2475.067773945407 3322.03127086348 -1288.0517207803307
2380.7654235354544 2974.9314184590776 -1568.2959081324743
2712.8527645657546 1752.856333531927 -3368.1899699982796
2742.5105168635187 -3791.1303444499595 312.6447047220367
2448.8359990901645 3167.2191483664405 -1097.5549490667702
2695.3862820065087 2640.583018888315 -2486.4533617903785
2862.635424251084 -381.66505420368753 -3667.1924937749986
2837.205734566534 2851.6136822183616 -2241.300606207262
187.6921689943611 2929.558153714344 1025.9166749818444
223.49974187617747 1249.627761979257 -2950.2620996261867
204.74487943437563 -1577.0174467381698 2255.33145517093
334.63082177195025 -2897.793025506578 -1188.3684535216478
410.15626560443843 1195.560189340431 3324.563856156815
414.10100369646125 -1629.778235293414 2874.063134964833
434.3683741873824 -3086.5862302897403 -944.970604297176
533.138071141488 2316.3093400851517 2895.5094613960923
637.2728072121727 -2308.4746886110484 -2915.802738876916
655.8260546952844 -2293.829166026515 2817.274703873604
704.801425162598 -2419.1181323561627 2820.7310154826237
754.8352603680529 -1787.7414888065848 3349.804377750978
656.3772079116662 -3156.2774661292356 -67.53929822564417
801.5994635667294 2436.7921363494456 2383.972542674413
774.5240192325886 -1356.3495827920408 -2741.860100234849
1051.0980315037643 -2522.1652143059787 -2466.873858093453
1056.1616776250048 -1021.9378045636417 3186.1197597710675
1188.525454332296 -773.6940806457751 -3580.3584275284074
970.1151912928581 636.5317234812866 -2840.554235532556
1278.8133158946753 1659.3821770148843 3350.6076748263654
1290.0667966593262 -3567.78614344612 893.636410758794
1302.4704928415986 3451.5374534306484 194.2632429603517
1400.4319131616571 3512.6856446053716 -931.1259647240779
1290.754705357548 3169.8332695758636 -486.83266436219225
1379.6734761955672 2454.4880382366696 -2290.1828464454766
1496.1855780855137 -1482.1104922265035 -3244.5088208898605
1511.7133415388644 -3003.0298553256607 -1861.155739862396
1530.5297396095832 1704.9508573139117 2917.324728950234
1571.4191041173865 -3360.2268020375636 562.6054024522064
1599.48961441153 3112.997672157498 1384.519589295146
1827.5652461143443 2525.154703594716 -2874.3468341370153
1647.29612505841 -1001.9950026714744 -3180.916694071285
1729.9401645812795 -610.2044341784957 -3391.543387384113
1930.686663933656 1805.7222598351632 -3260.352146676152
1784.6044836455876 -3392.8307845014515 -33.88609949915291
1753.7317608535147 3072.590572597082 1162.072361424854
1976.1515511114346 2208.5714730180266 -2903.4662127483043
1939.7666925899457 -2669.8906202349363 -2309.2388520855757
2081.374066923464 -196.18684115739728 3729.8439274796315
2275.6870897956496 3794.166593000708 -1352.4362700539339
2070.25787214053 3365.0737072524535 1186.1293962963025
2079.5842226107698 3244.7400031507946 -1410.356803065444
2314.488884790603 3164.256276999212 -2259.2092009088237
2289.823962771248 2752.3004597033964 -2618.6338383814705
2334.41539708625 348.7583053382826 -3810.071343749034
2225.3751746829403 2888.6042989607663 2013.3072800805594
2284.5555819399415 1155.3453479906746 -3382.107793503381
2403.9344020795975 -1585.85152231797 3319.655998618197
2585.6172129561155 -3644.713213650401 -1429.4371585495344
2618.2079229815836 3911.0602729960633 -305.83744210275586
2772.731417744271 3520.746797189925 2124.355429318946
2947.102630893469 4243.081916840345 -590.687605238557
2420.409450808123 1482.2399298789271 3080.9942859850476
2748.9991064144574 -3241.4819545586365 2007.9252322411617
2491.012889987265 2751.764940810762 1988.4201544253024
2814.684875859958 329.58829155079036 -3638.1012297725624
2764.3874724311872 2998.8065548326954 1944.3855704804182
2850.9892264306973 1829.3721314019335 -3183.8626862429146
89.90345683476814 2603.2945359353785 916.7647239990212
193.43757957882127 -634.9743960094552 -3726.286021820175
225.7319490359895 1444.0255368130126 -2895.943067298094
414.6838892553224 -2904.488592208941 2079.2137979842587
412.7223381272539 1150.479334297519 3085.4896372138955
529.6873392894396 -1559.7183900781656 3337.5342011209377
745.6905614012553 -3425.9587282553775 -1527.3531982782497
635.1702154482548 2915.1383890918178 913.77960824433
754.5710409462114 1176.8235543009846 -2985.4258192161465
1184.3151866255284 -1743.064244532674 3322.5338281847094
1040.892617389573 -3192.173974296666 -318.25982753566075
1149.1876815742469 2544.1699146229507 2194.72081266102
1173.266295493596 -898.5813194884456 -3222.0454081633306
1270.6698082096432 8.752879403198472 -3534.9891636470616
1311.2596566628229 3561.5843650130305 54.413333795383416
1341.2771057321638 3552.0011404912393 -238.5118402698992
1380.7780805883924 3570.4345114808684 -299.81060559355245
1213.3410815401294 3075.900327113245 -158.8621341435096
1309.6712850743563 1984.9638400236372 -2578.4558467809015
1378.0295399713248 -3179.7963548562343 -1063.7218347119729
1490.3191532917817 2587.544910002222 2331.5017346597865
1661.157029434889 -728.5702296932218 -3664.2709261740956
1859.6894123279433 1188.4609251097581 -3852.8670661582987
1657.7040881969804 -1703.560882765964 3092.8694312417474
1718.1788265220325 -3546.1669630869924 -602.5851557335079
1919.016484397146 3932.577916772059 370.5818782897126
1662.114381055937 2813.851985166174 1845.3893913145762
1747.510653774647 687.1636575000684 -3412.5015908877067
1817.281747335101 1293.3158788611424 3319.9853971795765
1978.8631758053573 -2421.1442841204207 2954.7352428721965
2078.0938151735095 -1847.9113315229004 3492.223462327298
1905.7294837746783 -3505.707393631064 293.8361282083778
2036.4802727304075 3655.926837927401 607.1531567258443
2083.6031154556445 3721.2018081778306 364.38729782203404
2108.4568567818683 3648.811271428187 783.5817159037182
2321.9859471418636 4040.294047456068 345.0347954787535
2031.9736171750797 2485.524923299093 2402.7098983562364
2188.2873303730084 -1344.1244666627522 -3421.447854069761
2333.805251922349 -2676.805887559769 -2732.276567319889
551.8295970650521 -36.38280636346068 898.2634866235624
2359.9974161505534 3726.4743241813294 -236.94959636451168
2536.406421135335 3871.7198022183584 868.7978896787426
2485.200245535683 3420.6650498475665 1755.8689064822995
2681.6381587753926 3904.6053588675477 -1263.6744009050865
2225.1978790262874 2844.529174240718 1672.9177436124637
2959.5834104954147 1084.4439928650072 -4207.494055413388
2406.3877224242187 -1106.7120685658626 3318.311678744278
2666.0988258216316 -1354.8320603034028 -3590.915494462942
2674.14878548796 -2718.84048951543 -2673.3640591156864
2270.331424502702 105.9294744255309 3220.2582111451766
2704.279092410161 3720.4959707228963 695.7979101971309
2875.4873389867726 3832.6536889120966 818.123890904365
132.2492879525937 3827.1244538342444 1355.25584848911
185.0920519625449 2823.632440627658 1181.871752871306
372.1938826854881 686.4326073469425 -3131.652323545971
431.7953418412381 1302.6493031285947 3331.371158105711
414.60233663071847 -2138.035965306256 2524.215959670833
488.5661180525287 -2823.5665649115404 1890.4697441412927
520.4578150382976 728.0158411567354 3323.190776200616
515.5636175525989 939.9719283533311 3036.8559027236906
753.8412713499227 -264.3312144293187 3782.775833839262
724.780154190709 3121.5546542834677 -1551.802996620776
929.1019290296889 2553.7051179418822 -2820.7472716635634
899.8556274444654 -897.6244405060909 -3438.7768703139386
1074.6089485754005 16.43107988343404 -3962.96593722604
1049.8796970676738 3420.5929575674786 98.12144841862029
1099.4055956867578 3313.641948083932 -1072.8774580065162
1207.0201174218241 3264.9832175120564 -1782.774407872353
1330.2947067237317 2878.5180488575593 -1905.3707886921297
1410.7059782451959 1097.777260701995 -3408.5841761478655
1574.1009206901683 -1323.3733771530415 3680.2994313836143
1472.775918929174 -2318.1675976486213 -2544.300098103999
1509.9594488651137 -2139.515772873139 2720.476660004098
1659.8231238973342 -3096.5603460220227 2084.8508396151437
225.74598764083248 321.0031505792287 387.25440903650025
1742.511958649916 3258.866790368024 2044.3082552874491
1859.6894123279433 3338.2136256023173 -2261.27260405353
1751.1289291913727 3347.3874969811923 -1645.5688818928206
1711.4914471583104 3240.3626158272805 -1529.0320853235833
1772.2967430584276 2952.6504599212076 -2142.3723442779697
1893.279174617357 1635.9483064700223 -3466.347088587331
1815.1666408434482 -3361.346894047938 989.6277370174505
1937.6607479370307 3369.014604566851 1490.5021282156101
1983.7354660553929 3368.422944243499 -1436.6526611167913
2181.337600223685 3549.9033522139716 -1518.3896699925242
2066.596124102339 3595.213556106171 -315.1515286182542
2216.475636652697 3819.8667057173457 -31.91160528887218
2237.696429508199 3485.6116095204 1407.3353216545813
2220.928396600614 3567.698547414067 -721.8913178446987
2392.17017126484 3867.845207285969 -218.28754539588698
2619.7382414828253 3743.122953674757 1889.5183390677005
2234.4180100954113 3349.704069213726 854.5944352106461
2550.8859322292255 3427.7361443602836 -1600.5355118353664
2610.836182377198 3661.0596035624785 -1135.1350488655298
2932.656049369481 4238.815507903207 453.44469338528774
2035.9874241771902 1172.3279933437022 2391.070069241537
77.17540943194439 2603.8467995040883 927.1881387897049
197.89911601208348 -473.870866611715 -2797.1441510541895
333.02818373664394 2110.3394597204983 -2293.939049919722
451.70097376575256 -3088.1306703297328 -1858.0271695992055
507.97648472030136 2214.4191561802704 2752.8960751800746
690.1970899264517 -2727.8929294722116 -2408.5101547088225
770.5194825831625 184.38455683254534 3784.5109770222184
695.2566940945873 3172.3322192220794 1057.6598181294012
945.0361525593092 2950.4431619521365 -2728.9642995264485
904.3804926392517 1324.565561730543 -2834.8134105576423
1002.6320426701221 -2206.00124885581 2411.095703211842
1050.16434592301 -2526.090920249091 2165.1313268795266
1230.4389131813257 -1048.5038893680594 3347.641497230558
1248.0242076672932 -889.859485031263 -3356.02951371109
1302.056542845706 62.59645874889259 -3536.4460526568337
1264.0406431829804 3334.997477080642 365.80982472556695
1208.219836715447 2744.7576611063882 -1368.5007788809583
1361.9937396102096 264.0786678934232 -3373.680254138444
1400.63366305466 3052.3775950573336 1515.735800590594
1480.9057104630654 1996.8956344935486 -2826.82309756741
1577.183945936836 -3278.4141866189602 -1173.168539032454
1589.868403842862 2918.1549071922136 1834.7154922848395
1729.0637657404359 1368.6722288460312 -3419.2433856023817
1876.7495390446013 -2819.1064457752836 2641.0997420370645
340.1226043754876 140.9616189434273 668.2954600959429
1821.9009919652988 3411.0972646602017 856.5654972199683
1955.5436104315636 3517.749758263772 -1203.72780903125
2043.3233691864943 3733.2006147350876 -539.6268804846228
1885.3653037609358 3338.7001430746914 790.4697050697368
2063.5416786660207 3324.54307246797 -1630.834865737555
2089.8129456688453 3279.689911047489 -1710.6241806350424
2222.9221817027656 3291.0088844049224 -2058.928003298772
2318.5959801215126 3428.8591833248315 -2052.0576748544295
2061.986779847444 3269.5205804231014 -1006.7155378704482
549.3742929624267 750.2020226157392 -488.07983492790794
2400.197587946937 1004.7057252644418 3754.9081753913574
426.1073772709209 -124.66711995361833 674.5769853785928
2310.874745372528 3416.4991454103792 -755.3374010401886
2495.406429780306 3548.8742298139564 -1177.1205125060046
2606.178728011091 3849.623206464386 -344.4214979510706
2704.834458705936 3600.051087889266 1675.8499827213989
2634.0933645404043 3828.9999847789004 0.34141350271251353
2829.343542879496 3751.9881989734154 1584.9017492463774
3008.5426884520143 4027.0363657210396 1094.0324991334953
107.55841103927695 3108.7357389693493 1113.0885433130172
183.15708114817005 1982.1537540687573 -2290.3946156134607
244.78398558140114 -2941.803760928189 -968.0907148551534
296.1641007690186 1243.1681923344547 2768.7105023038944
335.27187698607275 -1769.1056365820764 2591.777237073728
456.7143031083247 -3638.7038974874786 -196.3923277764026
510.99587509084375 3545.8943767749693 -239.89386977505583
541.5698604454948 3524.2278807175317 -333.7931167253379
755.0340581716789 3764.8361062112576 -500.81243332015856
746.2890100884656 3297.660325226281 975.7855191733979
834.1162127635788 2951.3435107483465 -1720.0661270903586
789.2093389826671 1323.921657491579 -2821.864710581418
1028.782828891009 -2557.9201484711675 2802.049341829162
1019.8742087777242 -893.6561147876706 3529.626006888351
1073.1750620548232 41.11012140912454 -3712.7724085806453
1192.8377106231 3769.2767192900483 270.9132950189958
1161.8424268772967 3249.818429378617 989.0850196373908
1229.386656414067 2870.4906789005117 -2011.29517036791
1373.1141916155127 1119.987989637671 -3652.1263536558217
1385.6208163051278 -1409.9460614759944 3489.9495846972245
1516.4280622705342 -3057.8362175725506 -2476.6636159360837
1286.6142767240462 1909.7144792674 2649.4804410820707
1337.4424340203093 -3262.2626943647415 -632.4326944079479
1415.0181050167823 2861.9573811670593 1914.0138318161096
1561.2006508646712 1038.1390299108118 -3574.2903288031653
1713.975890702179 -903.5022712642453 3674.552985850163
1733.772941701572 -22.977182283018518 -3758.929774429729
1586.813882216311 3377.2824548116 -135.51096052251089
1645.3203575920732 3082.4963043646544 -1262.4490221701021
1765.0811429680145 2176.7165158762505 -2761.188369074366
1875.426602568388 -2910.4411139840613 -2247.145193802843
1973.682905711626 1368.1199334203093 3555.8891782194237
2071.25625010207 -2871.24267446244 2695.145544186023
1721.1662700127035 949.291073183497 3081.0748868494134
1971.6382133180523 -308.2919894316437 3574.730765981164
2120.9396783696666 3268.207782362202 -1950.500933428933
2301.110604949772 3408.949612646354 -2228.988904960783
2160.6985874271313 3473.52640573246 -1203.1584719725577
2285.9149479413363 3746.8266861401644 -840.7673780707216
2550.2093146841667 4092.8344428354662 1072.411872155331
438.5303328764871 460.53611324494307 535.1097909749373
2356.837269637229 2587.870006956608 2684.840745201548
2342.08496145158 -712.4901034858528 -3594.058131476829
2522.6883116581976 1254.6420704253392 -3695.846624945199
2701.2407768950957 -2398.523072629204 3367.052579046749
2599.4864240600946 -1976.780079681563 3403.591708265572
2622.879718918589 -3744.417968789135 1193.4127848355936
2785.5431631083616 4000.4665380621245 -1030.2565107026692
2774.99259248753 3118.731704003596 2621.257056918078
2584.8237964779287 2483.707768015758 -2770.746600304362
2458.842287416939 -1292.3071436593673 -3259.1376538046025
2693.681945850458 -2302.0984672325185 -2819.5642654789212
2810.2928263075596 -2371.117210151222 2846.8979918017235
17.24379075462461 3485.9632489754053 1255.0239945088047
296.1641007690186 2975.0845303276424 -600.0808590558037
390.28768931924344 1438.2926751959633 -2761.9395685781465
448.6320196842419 -2691.4111640530214 1967.704740557069
497.1929476826499 -51.83467725775617 3457.6114828351647
505.7711747550299 3292.4801411687204 -298.68130174083774
529.3487410165721 2805.0446824139476 -1668.9578573652586
780.2925756390508 684.2177038158262 -3690.102320232462
933.5141890172823 1460.0518376781235 3691.7676838193292
989.9025546087671 -3361.1234066308907 2266.663946287132
1029.9093291968568 3531.1856971366055 1563.8962792774548
885.3043940409166 3040.9348416318717 -366.9935816187299
1054.788544277809 1927.1530966380867 -2847.0906100997618
1099.2968166196613 -3304.9118929271413 -745.7220527708292
1207.0619109799834 3152.1540252516575 1784.0428809559967
1282.545941553418 2472.8043069591135 -2454.2809251356007
1225.9875567563092 -1256.7634970686402 -3001.5098721203303
1365.3633099426943 -2066.298693185374 -2878.065098384749
1467.4436095209292 -3259.234837545678 1634.2289538888353
1497.30737604885 2842.6914636645715 1922.9480602472279
1615.8042411580263 895.6980154115009 -3521.8860096811622
1852.309692437753 30.153368926719015 4015.8867979989636
1674.7108606578388 3501.1459069827356 184.4270533789439
1873.3487503380748 3798.7502646885264 -661.9912586498779
1869.569965021314 3559.5517703593273 1286.7852167831973
1880.5443576672876 3736.669365575652 -264.2310586748869
305.85401839423844 578.1529495229179 140.58508796437266
1801.9613795961636 1824.8601611989088 2899.54503190916
2030.8053632532024 -3800.419818919593 -165.00060594788178
2113.2037283129675 3664.762316645817 -1336.9061906105394
1913.3902616425469 3459.78042106225 392.7383837038598
1985.2940500352317 3409.293136329789 -851.4201727552569
2202.8803794463006 3635.8620195025164 -1256.9472443738782
2205.6747675030824 3607.9211821507733 226.1188700391138
2390.334822678466 3781.638574036825 52.284752621863205
2550.4691583492913 3791.1738537621513 1243.825072327391
2456.697263445121 3477.991304928933 1205.5444756784123
2449.740574091667 3550.940292447754 -767.7968738351708
2586.3148929001354 3783.089271083389 -324.7222921416882
2583.186362979686 3564.9089218165045 1179.59712578197
2473.5700934739143 3520.3871622695783 -215.87780739933964
2471.38034301584 3457.3533422302753 -483.5171837371911
3042.763283873067 3798.168886679347 -965.6469894640431
138.56653818992154 3111.413412277476 1126.315931654983
182.61287060662713 1986.9147795125475 -2274.328397341643
230.54514572433413 -3130.68753976221 -1059.1602939959762
328.2202696307251 2097.793477709079 2244.2028707051522
400.6193423495338 -3119.3926442602483 -1785.0001487212976
452.80346317860653 2248.97241319641 2503.0677347370197
448.30757977862993 -2208.709580883735 -2200.8012148561706
538.430704710484 -2510.535013733778 2172.467248272511
698.5424243471067 -1195.8152635441177 3483.4630549892318
746.4857526157595 -1853.698906943767 -3265.5513106358444
734.9320163778171 -3598.1391719451117 338.2166455308598
933.5141890172823 3969.97906237801 12.893575152617835
962.7986612783346 3149.1065290729352 2372.841559934041
963.4076146387706 2686.342400130115 -2694.73366202732
1055.0853946270206 -92.74101712362084 -3889.894613449428
1145.0467726832303 3482.8712488917654 -568.7256488352836
1295.0421275726715 3805.0826650364215 -788.8865014939233
1166.9727290271817 3195.753077927403 1195.368673220747
1236.1622264308241 2617.9694357458343 -2230.0127877437467
1272.238454078247 -493.10806857632747 -3420.640354188806
1314.9036794958572 2275.324333911891 -2646.3180412619363
1549.3735304212107 -2655.4544226427447 -2901.2154020801504
1599.4571871190817 -308.65421730118214 3961.9955292935647
1465.5655760669429 2999.161110892393 -1792.5034535282514
1593.867024407662 1857.774778222672 -3228.6681268596963
1614.2299800060446 -3681.205316446407 -372.4612975420499
1522.4308535291916 3389.6679044286316 -483.6605190486526
1532.3415534475348 3157.5993496734973 -1214.1891726339463
1651.6009578807639 2520.3758608795897 -2454.389846763441
1719.6118363856872 -1110.214922093129 -3424.5324975479134
1739.7463368673873 -1284.5695859532111 -3342.6698878058533
1815.2363596970486 -2285.58008838376 -2877.8027485537787
1766.7875309482993 -2292.6880007747536 2596.7051683053014
1834.3336401902538 -2310.5419560938385 2683.2958966781985
1985.523703437104 -2372.908426409952 2935.97183226826
2053.2275044878593 -2078.2815151613954 3236.1183451379607
2176.0418807057654 -3552.4408415755415 1875.2208048936682
1919.4348604013257 3480.9734164346874 289.6084841212706
2006.1436789623751 3522.597900399673 -742.4985064630197
2036.7060473469012 3572.1545735039135 -485.5272422790227
2171.9587416791833 3788.5215281506757 -184.2651099336684
1974.9584477027097 3179.75457878476 1085.7075198677378
2201.9790084466154 2747.832264871955 -2476.2913487973624
2306.0980472658052 319.0352700643207 -3812.675241409237
2409.2957017584117 3236.1560645005575 2014.6061466689373
2351.673191370186 2961.7988359824385 -2182.3814183531426
2413.082290535459 1629.3176261197025 -3314.147412716528
2444.2833474203276 -3537.9926850598945 1086.2820814423283
2550.133182185223 3798.6455645363994 412.71403541427867
2560.3261656553977 3571.072835314058 1290.2123100025112
2930.2940925089238 4296.518308013298 -217.10464966588285
2380.2462891903365 1203.1251179398607 3244.0853796690058
2409.0752287518026 -1750.355619288922 2993.87361223277
2285.6152352229906 -3246.774191956831 -282.0254358086615
2807.03172590366 3056.3980643198493 2165.859384268027
71.85453728308592 2901.770812986885 1056.158202589665
183.21754898611925 1045.1159864176857 -2844.052139981647
237.98662595595698 -754.4842920224565 2914.939871265164
429.5169914248707 861.038249838411 -3317.0683038362663
467.71794644640255 221.03707733442175 3245.481722401693
510.8604577825375 2918.4884903428365 1185.295293054178
675.5927546903052 1325.6314467806028 -3306.137514881431
746.4857526157595 -2539.8907778684684 2765.678910592968
720.6708603921268 -935.5834574288025 3260.421382917485
937.0413207138212 -247.328760562286 -3977.317372827912
943.5085029620809 3509.548548003937 -1616.652402096214
1075.3443419702503 3461.4145336812508 -551.0303313069169
1112.347206201589 3421.4164726035287 -844.0884556711031
1211.2381984773303 3553.134967927243 -1144.7798476967823
1247.3861769182988 3730.4858816948827 -305.8170800906205
1171.5125342148312 3253.7576952165646 754.0960554325873
1178.3666931436542 2634.0905854041735 -1818.78195171524
1273.8364872136085 -388.07150280459183 -3358.654717101921
1364.977940676552 2760.1380743600303 -2219.775171153174
1416.2211649794692 376.64141048014466 -3575.215552650151
1611.129119284772 3168.799243622964 2445.9600065443697
1427.7586107546622 2535.751884515672 -2374.5817274154233
1476.0518781280973 -995.0213719079895 -3375.3953056562636
1447.5307767976165 -558.4805089650997 -3336.5833604311583
1548.194924529611 1918.8294892900383 -2828.5716167406704
1705.5901876011412 -3555.1459274578942 -748.0818367528706
1821.3652658240255 3737.517878693511 293.191245514524
1922.9162587930591 3605.594230230828 882.4025424522317
2135.9501350087626 4060.8064313815125 39.65005486181317
1786.011969302193 2286.948291619149 2374.8845259212612
1967.2421414934859 -2363.048686386328 -2689.312348123187
1989.983077104067 -1981.0969939837878 2971.0765221428414
2020.322004247578 -3398.856133935275 1111.5543085295278
2309.1312716313655 3642.4117671579306 1333.9705838096436
2114.4254965521286 3498.3936424195267 259.433850294511
2361.8719294618068 3810.291258769301 -682.8773852942103
549.3742929624267 835.3913283542422 321.1640211956107
2645.9600371372844 482.1678295646391 4257.785713740526
2467.289843934099 2631.274295728354 2944.6555962691555
2274.0414309881335 -430.54227867209954 -3572.1474418444486
2398.975125635311 2742.3467243407476 -2562.1364997785677
2342.357786689549 267.6023449935144 -3614.1063881620826
2329.3670268445003 3149.2531153499294 1588.0597644480404
2505.4174210738884 2651.0163307496755 -2657.9368717293733
2815.886770549629 -356.58247929705084 -4160.748122087946
2576.778835881278 3073.719822684873 -2205.2971345453816
3018.6476060598834 2663.46025945057 -3487.1942082894525
2536.197710545799 -232.6806310001127 -3643.5780112353004
2514.2468911550845 3293.4201815903516 -1416.195081015809
2808.1426658522987 3237.0321300671503 -1918.7996218763772
2952.6787203050353 3112.623234321815 -2286.1803518445354
2885.572094195331 2469.8556208745467 -2815.108916549128
3416.649324068164 -1572.8444438099357 -3702.794803331156
3138.6394633846476 -3370.5712168624723 -1411.0158298397055
69.83013807854302 2818.221850536222 1031.322743451434
229.1731058275221 776.476462766654 -3709.607028078498
247.81954924186144 814.1911952012139 3717.893045483802
407.45834231755316 485.0667180987722 3214.60903983562
451.614531136843 2081.015623859693 2352.712258915623
476.3978941884946 -2746.9030637937726 -1466.8059033561271
512.4822370135931 258.39285482549406 3149.4179037681124
628.9347486111881 2984.4667802366353 1445.2729976250062
746.9400327782782 1639.5646475001404 -3026.4156632339423
803.956954462174 -3417.500840822886 982.7634521973575
814.0619955611666 3287.859965945234 1084.168273071393
940.3668543412336 3176.352542769864 -1924.7286884232326
1021.732656631872 2784.0625414483306 -2539.058834549578
1002.7876043461282 523.3638234187989 -3541.537845108599
1065.69661527465 2185.6346243037224 2831.5950079495346
1169.0704538149591 -2742.9689125024547 -2186.8208763053963
1265.4745303049742 277.2210996460103 3689.6000409137923
1350.7469369045855 3408.9598116393363 1791.4223406633907
1282.878804780342 3217.4728874696234 -1114.4026284955917
1397.7058952286945 2786.200526478057 -2196.677178434146
1463.82128574537 545.1185932858956 -3595.9163949199383
213.1300009717193 304.20004347723557 426.65950540032264
1579.656542492303 3247.5609127845096 1906.8571309236158
1608.2454431118827 2954.0144200626064 -2087.220114425449
1557.2539937193687 1474.7571508389776 -3105.629621517882
1760.9878320098765 -3162.7067937056695 2016.7515308158324
1651.7827028393629 2498.7974762329964 2390.350428864272
1680.8841719861377 -1170.6034671048199 -3195.3241655272122
1804.7402471473301 -1635.4686739720178 -3201.44767510828
1939.6919688788632 -3647.2737515844415 -1077.1272817096194
2068.175598644297 3860.8211321354534 -319.27446759225484
1989.1525481582203 3298.0614161059457 1614.4271106473789
2055.1635779848148 3232.5893991997177 -1880.9481056588477
2027.1016082886772 2875.233610603333 -2146.3400672905773
2107.8249744584955 1108.3293368947477 -3510.1804912252655
2057.4928292069276 -1261.114484772592 3314.1675057692482
2168.3397957069333 -2174.140898288274 -2980.2403182277526
2246.6257847735947 -2997.556994445799 2292.9736293837022
2463.4141973798605 2028.3898071814874 3548.1268001753047
2487.9078649140497 -3669.8083934006545 -1545.5841470868247
2384.6465589544823 3745.030189848976 -458.5606580592618
2464.174048520169 3467.8575863050046 897.0439014378436
2916.6677207749244 4010.911110436917 -941.8025611420339
2984.3523828262196 3148.0602481931714 2745.3680397618728
2860.3802386956845 2701.1489051918334 -2719.5006144476156
94.69179312270687 2728.199217162029 1003.7818644887403
157.0528919913763 150.9857503496603 -3065.2837231146073
179.1057360055727 2859.7491220846855 771.5432319292752
457.1094693663377 934.9102024288494 -3265.8156582076776
492.01684990457716 -208.3727825716413 3415.6499796500448
484.3531576752646 2958.925984058102 -1126.194042279479
618.8196299189196 1496.9581609752736 -3083.8774723210922
783.6390452843614 -2672.095195837183 1561.7081239411696
853.4257764760147 -158.46583214962746 3251.1403507140576
860.9344970292447 3054.3382632712373 -866.9733407188735
847.8877313842821 1754.9405037317333 -2466.3561844068286
991.0900317225932 -3418.4015820622903 269.39120949657996
954.2706901662577 3043.4609130028557 998.2758491638588
1113.2941533124304 1989.89960120501 -2912.0488624204336
1343.364595019413 -3811.615284111334 -1311.697345399797
1113.2876597598427 2959.965772567324 -1145.809157421045
1237.2405883614122 1508.688675713954 -3093.7392391364333
1269.2934576567698 -3011.855022744383 1678.521171141262
1563.8284820060553 2101.2752418013465 3471.5999709345388
1442.076259449957 -2973.561959427152 -1725.6225756079325
1515.5642954233394 1627.6230039875081 3145.8873719335024
1609.3485172300336 -3274.026528430518 1015.8416663699178
1748.272033658782 3083.4670704286104 1971.758308105332
1812.6203805786713 2314.781680791351 -2926.114620152937
1852.9335889348527 -2298.80202852584 -2887.730983600357
1786.6791919491604 -2257.2907824625327 2678.739876025608
1904.2672864556266 -2566.039054469935 2632.189121422517
1985.523703437104 -874.5980238519452 3672.2885639168217
1908.438024826092 156.14038009583044 -3519.5382057456814
1884.815794782865 3303.4215094372107 923.2043820236023
2069.114299996472 3226.581311791092 -1837.2648253315238
2053.090090446224 2889.140630669145 -2204.2736708985785
2246.067327089683 1254.7831870797415 -3661.9885517874036
2050.782745248439 -2024.9976133110852 2841.215526158551
2210.9083637120116 -3431.294504167502 1421.2719745600753
2182.5355538812023 3465.162590438692 1050.8516649956894
409.96093372959785 657.3668218079613 -157.62252880251637
2291.7382514627493 1490.0349767273087 3305.7029158908467
2436.049614653922 -3266.7843984086157 1962.6106833282186
2408.2850753877647 3113.4482351678153 2046.8307421304808
2960.861279963933 2843.175888180054 -3231.217552080262
2546.617586102684 906.5888671889938 -3552.1335315397387
2453.682116554827 -39.857229504754415 3465.770823533519
2804.3155421299934 3812.756115821455 -265.6591825367464
2817.2657054540364 3547.536823693816 1381.3875214929335
3000.8451520448634 3908.557414643401 -358.8926530817996
2964.345551882462 3277.6053896550657 1958.1692750383115
3270.489886442575 3286.033855619703 -2072.487997485416
3404.3525557697617 3411.765582571809 -2082.273903591563
181.58491736149048 2816.4804706395284 1041.8477616744874
464.1089638886187 747.6331154349701 -3626.7414747545768
419.21667060070337 847.8155693302127 3112.600963888768
452.18965311218443 286.04763460793674 3131.964519392773
485.19986269366495 2703.1870354380594 1474.116973458889
541.025551480173 18.55615803702255 -3335.948391237326
689.0590897781805 3631.0948538317557 117.63996972347643
663.388270700077 3332.086947687715 181.01263229169172
706.8988395639815 2584.233995552924 -1304.8983317594393
887.5082232367614 -656.8185917852062 -3206.418303572586
987.4687101542199 1428.9560761974274 -3162.117096550735
986.7450907994522 -2641.444808261855 1998.0273583979003
1107.5586517867628 -368.2932159109706 3591.164171562469
1131.9174464923094 2870.3230129479816 -2149.567817339388
1242.3873009755325 1091.9714190642649 -3564.4890825960983
1071.54910903932 -1030.1916121396266 2958.7825608309167
1235.083864500236 -774.051417085448 -3347.6768666805356
1165.8504583523752 690.5822815495616 -3090.790370182003
1341.2771057321638 1272.4116116793923 3324.841152666312
1408.5246677506486 -2211.900678330277 2909.728576551782
1484.3731153387037 -2835.529576302214 2481.4503867527524
1646.5473962013496 958.7013488144938 3977.080930001459
1392.0029978773864 -346.40217119241316 3369.239459550654
1455.9181781706807 2855.722154958737 -1972.9906167232086
1465.0740111602242 919.1821185953665 -3298.314756486187
1601.577907189781 -122.87886490242877 3668.942870168503
1666.0480164059231 3661.1584467885823 -797.450830778058
1603.244146143832 3456.2164143146592 370.3297144733563
1641.74205506226 3387.4635590256557 -868.3891041884607
1730.120575385822 3375.649002810982 -1312.9652736539617
1881.6078086253535 3579.861980477548 -1478.0788885344948
1721.3874050460447 3482.847632984608 -122.46373101255082
1765.583156944968 3443.736840697045 -714.1187380442658
1806.5708529500218 3411.083962442638 -954.0808147985337
1885.618314118194 3443.9234510044053 -1178.554735097996
1977.1082387337945 3620.3930008645807 -1011.3533108121784
2069.243319655471 3873.545150144709 137.9274076839048
1797.9295499284133 2947.870883047172 1525.0633615960642
1933.172584853096 1474.912714480659 -3193.8936245065042
2115.9243191722608 -3202.046485684826 2040.614442640612
2053.090090446224 2792.131043373357 2325.9321221030523
2118.378049262073 577.025466637581 -3557.5072186647326
2229.9576549448557 2001.5431619282563 3166.4397943018334
2306.7007911359738 -3592.665296768048 -1318.5920769512284
2186.150122258242 3582.7064171311695 45.86642178258547
553.6710751420211 901.5891642150826 -27.22092889577198
2226.6392332882697 -9.771432379493934 3522.986448896625
2398.975125635311 3752.4542305278633 -64.00193585777575
2392.7727721646547 3571.720446618959 973.4562400046875
2360.1552216122604 3607.601248724792 -178.20558408568633
2464.096506140298 3730.671667777956 49.49653764500524
2945.960471897047 4213.00710662563 977.8528107654743
2989.7544430119083 2087.004037002795 3812.1031137069253
2835.0077033146113 -3332.2654215145085 -1824.3925456377895
3004.163666178716 3467.6141905108075 1749.6021907188156
3014.8124091041386 3779.8089596048585 -889.2318195447327
3150.18007383027 3748.519583452674 1216.5861796320844
225.54503555056925 3496.061820804755 1300.1737365103709
304.22136277133126 3785.841538379894 -694.4097106732876
460.0983004145609 3479.5815330944815 1169.9373293248914
455.0652629888915 3095.3557225336817 -660.3014091897641
492.04781870229164 1931.314432694075 -2339.910374793779
654.8399651441575 -3207.8666333817514 -748.3499598690643
777.0528831514321 2662.9784957233896 2172.9046300550776
974.5482020353819 -248.52901401268466 -3840.9678896332734
976.0196006820669 2972.6090176312814 -1376.8702292871278
1002.6320426701221 1496.8847252947628 -2905.0232562200295
986.4032404596951 -2697.793831413732 1577.1916317258401
1173.4028129653566 -13.557543790117572 3520.9738983705033
1261.6558639433379 3595.9930522282434 -85.1056304024695
1221.8053903604462 3318.918837094577 -23.211048635915798
1329.5974455417995 3112.7902182203393 -1662.641890892856
1368.4334263223145 2243.070294388158 -2555.1194990515455
1579.765121706408 -2779.4177509141246 -2712.985987045173
1357.7663908782752 447.24561650328076 3205.953892138594
1428.7038911401835 2372.352408487264 2349.6521125359554
1608.1220827844002 -1994.8304002086863 -3099.55604472693
1700.9827081581757 -3357.098062724855 1187.6925516517415
1776.6691856811046 3333.259301465583 1504.3375383181697
1786.0937895685788 3231.1659110002156 -1623.2753480510162
1744.3456569986095 2735.5160297644875 -2052.6451351613446
1858.2397997995465 218.86043489020153 -3526.2145581401696
1837.5478602306841 3193.925014083153 1283.0459868663831
2125.121308939188 2978.2871906679784 -2553.3770598763986
2118.1321870475344 1726.8040631442327 -3271.199891096319
2502.7896042613506 -4223.301267424463 542.4853957213271
2199.0025566914837 1715.4065394877416 -3271.546485117198
2201.220613856435 -3612.268036265243 537.2370372344437
2220.928396600614 3639.1656281701057 -77.93286049720749
546.9189888598014 888.9191368445978 60.85859143502418
2565.6858703163166 80.35167121753709 4154.222984979568
2454.1692851286757 3889.4367039124677 549.0593103286027
2317.0194235693434 3208.101638027856 1774.1589218790373
2310.495255709013 2740.6001140535714 -2234.369489330167
2423.8097500763583 259.84069942401334 -3660.7899162507047
2591.5119461986974 3490.490411530491 1701.2247608748542
587.6717565024902 860.0481651937484 -166.4126003248157
2561.6747704305653 264.68626116399906 3789.7680909458063
2565.1993380726653 3371.242439388057 1678.5351991748234
2453.4657612819824 3238.545164452789 -1366.4004602602636
3250.286087916289 3117.8420675864268 -2277.362913895894
96.35305265117542 2770.67633579676 1035.9134337655046
134.29522150954318 394.59212826521207 -3182.6319379267106
226.33111744390905 2889.8849339114367 2378.7841576636774
274.8405065518537 1281.9903486934343 -3725.6007228173135
542.8095086343343 -2069.7685929563972 2630.297886478126
633.6764158956512 -2977.465154771568 1515.5798402331436
690.2259741895916 1616.4267424319014 3072.7753882037964
823.2325379721676 -3322.837070960711 1102.6127152582822
1013.0338675873118 3541.930882342809 1860.8403006992005
818.1962548310169 2906.0109202180715 -295.5360072365398
999.0202769378221 1197.7297007312452 -3186.323832253439
899.1535881741386 -1498.631744448853 2619.6234260920382
1004.7796633245563 -2832.3146714434756 -1644.2684093316507
1121.1853792361078 813.0014036774519 3457.706279836171
1132.0787718384881 513.8247798948569 3357.9149923078758
1211.4353476595186 2210.6279735314893 2767.4695956125806
1279.193476730985 -2749.8017957628213 -2395.6625563754938
1245.5080298292542 300.80053863431567 3451.918891856717
1244.8257183536712 2859.0369617504525 1655.9962715370891
1473.6520737287224 1047.8573000076526 -3677.6311776496395
1647.3523570403627 -1044.553878608116 3957.468407288268
1395.2908703258715 -847.4806118060268 -3287.5221083078486
1460.1126989951424 318.6344330360275 -3466.386172670871
1560.9199745071546 3098.2780529873967 1925.7666282228042
1629.4997230601557 2392.2020160677694 -2868.378377118559
1712.7347102203405 -1971.2223916292965 -3309.408751233259
1704.3263978400366 -3409.862001377107 1050.4594859224756
1657.1557539945989 3224.8962974072037 1111.2897331341228
1630.008159727962 2617.7023765842027 -2009.3865401224862
1761.0650311523877 -502.14583535351375 -3471.8746463599637
1736.6950181521245 2178.907602443414 -2616.5600814837585
1989.1642438174113 -2940.4963675659487 -2288.352488654548
1796.8461335078478 1351.77010221727 3029.0603478226562
1983.295931507526 -2524.35580277474 2508.8062462050552
1990.378753066056 -1063.1635690497496 3358.75158733798
2067.3567260192563 -1000.9917300182948 -3419.500629687759
2207.336621605853 -650.2071289993694 -3650.5471767117865
2146.370921671075 1503.7768135790434 -3227.9058683521207
2252.0457999595787 -3208.595366927062 1824.3894242551926
2395.257639219493 3008.5555769429657 2448.5167633580495
2627.8142130260494 2108.4312919017098 -3529.141324363433
2425.1306273243567 -3152.684518225982 -1882.5951047790936
2538.1199926329245 2701.697076554706 2676.498067725018
2530.656860601714 11.116209694697439 -3752.983537118438
2922.8014762798216 4290.192424579216 83.24638180188398
2931.2801844624346 1525.6697631424613 3978.4988090777188
2249.1463821295274 -2846.3728223897047 1477.5015248592015
3176.915257967348 1015.0918471873451 3886.6280426320427
2974.8874750274585 -737.4444639257716 3621.683539823052
102.05345299395962 2932.674525470203 1102.3198844519309
137.31026857804557 1295.28273171165 -3012.321969001588
375.76519801147793 -2238.4259816495064 2712.699416573175
408.08500848537466 -2348.3751372760917 2255.3647630978667
439.6163192286798 -1881.4560765673198 2670.844816148611
483.6775812621267 -3330.0612302611885 476.64263627097085
493.991265361159 2877.216710235473 1465.6278526084868
535.5115020945836 1005.1068912336902 -3145.308273793611
585.1805960283866 -622.9607441162215 3357.699347959874
807.6167793400255 1628.0892795077473 -3100.536937040413
707.6313772215607 -2768.5301934595896 856.5305411382635
998.6017430053381 470.6090056004292 3915.822156820682
766.3789691672475 1991.2078369520868 2139.864563485407
828.9375613916222 -2888.3457798293125 -1001.3529128844638
1005.0864662751898 1057.613812187916 3100.585271246276
1132.8643936031506 -974.8859070322637 3454.0582606942057
1279.045724555819 -500.20179401538496 -3805.265058476714
1267.0847103406616 2211.5461687196266 -2637.504036702416
1369.9877411364039 -2676.688940593588 -2339.5215996660463
1369.736019647737 -141.42436832444 3474.1226443584333
1318.5258543035006 3176.708740677406 -800.4358668274249
1483.6020156121283 2614.864761303156 -2381.7748172518304
1599.001629586962 -553.2361319871362 -3695.821800664084
1629.4997230601557 2124.993314536128 -3071.584023460332
1627.6579081786833 -2924.059878416907 -1862.7836233530998
1765.4681520226388 1408.7932183703938 3416.974929359826
1857.8022876796674 -2966.7308784101688 2412.775143913669
1736.6950181521245 1528.5022096561172 3042.647859197046
1860.7530176682835 -3196.221541861153 1639.0948280507482
1919.251918898541 2779.7675315506012 2363.914861101617
2271.0425907673825 590.3331276673282 -4212.840229391391
1932.2731860785327 1835.3628097295623 3058.5833905031277
1993.6185724408847 -3621.092073978062 -223.77710287975816
2244.0946097726346 4024.2716763025683 -148.21091494527332
2068.416302817213 2597.498920579762 2374.1020107794384
2228.767074242803 -666.2275751694542 -3684.2471168589964
2255.4675621716265 1484.7632322837553 -3434.8278186916878
2229.4704288952316 -3114.757937261077 1910.4970537190368
2497.1440817230286 2678.355640687245 3029.908754731538
2227.3710543492184 -134.64131273001053 -3562.456556493895
2301.218691002722 3540.9302937307716 -847.7580167357386
2392.1264261970255 3681.3488150136673 -380.883055802522
2347.7402301364486 3556.8461345413475 508.4236178604155
2570.8225641919603 3841.079434932891 -289.84957225364474
2866.947428026513 3841.88073943177 1719.1955630419698
2929.216387101865 3884.1706845975364 1744.6438298154453
2908.547691562411 3246.2597648736196 1756.4960970530717
3174.0357688459285 3260.7459843819142 -2315.067304709999
3041.4704848830697 3157.2555674823543 -2123.6200888110084
3017.5468462873223 2684.2997091244715 -2617.161835193666
102.05345299395962 2930.746148589974 1107.4366855604128
136.43087984973238 1276.9064649330073 -2997.344471329962
176.02187627016278 -1779.779185599041 2303.5422832039385
315.10723727329736 -3565.7782162107624 -125.89564248532744
381.8552225456418 3567.626830645682 213.34197256293916
400.9849253885452 3448.4880918848603 -195.0535314428232
409.2130075874534 3151.5069618834027 -853.3632691887104
480.65794070549254 2532.4198595134285 -2519.133512766242
520.3416071901416 -1043.467002091418 -3465.3048373189836
713.7358577013879 -724.2865120924746 -2831.843577671782
1029.0511907069167 1042.7391211148815 -3292.8424082085317
1131.6017974553622 -883.9096245522003 3474.3242185530107
1224.865844964351 105.99940200650376 -3773.511511414039
1084.5458744856955 3116.8886009493062 583.3064797105172
1099.2575695297248 2084.3769375000056 -2340.369368800168
1308.3146602413456 -3125.158291848901 -1692.4247844108343
1337.432783061279 2294.320190240019 2502.422798940459
1425.9881263117531 -2304.1893643320714 -2691.386329254677
1608.1806113652829 -2493.2434627537227 3015.842508393936
1529.7417446812078 -1287.6729878938136 3412.1118499030213
1421.0019833712338 -2079.4737302252 -2589.3686499421615
1801.395908383342 -3513.1960421960302 1863.8622720303526
1773.1133665992684 3491.5430029421323 533.0585883426313
1860.8696325193307 3474.802407830865 -665.7268407784265
1984.3594992671276 3628.6145979926628 -805.757469239067
2027.6138310882948 3738.3330881847396 186.8548147176011
2211.773636734995 3908.256665046126 962.3693886042589
2272.5149785579347 3501.9027076696775 2089.679742452365
1967.2151059256337 3431.0896135370317 -593.2521081954121
1966.9597357416278 3286.8108012597036 -998.0479731568747
2168.3166110395628 3192.471382308407 -1942.4972260319569
2114.851337748318 2725.6015027206804 -2348.765728710884
2215.075396169196 166.21031353093704 -3717.285990030354
2233.76878284555 3551.1545861363297 1060.0646703682335
2200.183461027971 3592.9041104588414 -307.0440571774073
2252.9873834455207 3605.7234595891864 -44.6579552620645
2272.777372382804 3595.8205852877977 35.9210024988404
2433.492753342294 3806.898716984069 -27.769742977714117
2421.8583407079855 3505.3428582856636 1323.8506131228298
2417.3904542803743 3500.6774886446224 -583.6592503308577
3000.7613622682798 4296.624059065751 -752.3733747663783
2292.372622514691 1146.9181810636317 3094.2816106401324
2339.6171907652333 -1393.5717451567991 3030.9823145476503
2390.149786209038 -2493.366448271998 -2140.308331673613
2944.79618622832 -1318.699431486253 3496.5984627059815
3055.8585187143167 -2551.630782989139 -2846.8419954929414
52.03704612399443 3484.0952959279457 1323.4836488951269
279.93272913517484 3931.1696323866313 -806.2718656887138
291.33799510915225 3087.2350967545985 2013.8459368498438
327.6479401019992 2320.8381025180142 -2894.444765736701
437.5978788281808 -1998.380479906466 -2565.5368751060278
454.058799532044 -2970.590442575033 1071.7072466312184
787.4527762631475 1584.4461509145976 3101.7445727931754
737.5381595167524 -2616.2668119403133 1033.497444960397
827.0394380910853 -444.1481176585669 3017.487771239571
997.1726506357991 2390.7345974818913 -2342.3913175221387
1223.7480728192427 -1838.8725444232894 -3069.3047690586573
1272.8799361274318 -3620.651065567122 246.0220750413771
1410.2851613350012 3828.5118600381165 -138.05048912437755
1332.210188566724 3050.2199167910644 1285.4020613065438
208.6558978978855 294.40598395775123 -420.11202864220434
1460.2263511834526 3094.1860096800206 1746.3739397678933
1497.4439343328522 2266.883406157932 -2757.923063264422
1495.125984183977 -2350.8069781736585 -2493.5989154974445
1544.217977309253 -1988.022089381533 2847.717888438229
1556.801040259881 -3253.5908019784238 1107.7526318097362
1715.3236419760965 3059.735149754074 2113.9966445951172
1780.236166084098 2227.4633488532127 -3068.8224173965546
1654.2407922461475 -2500.515990545462 -2311.1565894647742
1750.03603330793 -1208.7785699386661 3330.420899654732
1758.554961267621 -1797.7732245123134 -3006.496371730157
1952.443033623005 -3827.9710899404745 -14.877317632391186
2107.851901139267 3751.140720585445 -1576.6116498255715
1809.7871139401568 3272.735224767406 883.9141070073696
2040.326835576903 3123.602227652973 -2007.3560031547431
2067.9997757303818 2500.4330465806916 -2742.1443396668965
2003.607602724878 -1194.2430521020626 -3288.8880389131446
2063.8753506737285 -1747.4590694505873 -3098.166522412068
2247.1030195141248 -3806.9372388780534 -350.0826463044751
2234.1246874020408 3510.8667398672205 -1326.2065204537776
2262.0977447434834 3707.678231837973 -581.4904377157401
2333.1951067584473 3756.668260574028 714.4365472144526
2479.2367675860437 3865.835768839947 1084.2226747110847
2326.1045782539027 3254.2941798992238 1628.4625849782485
2634.2255090513154 3250.0695824926115 -2239.610838729868
2714.370515724793 3264.5984580466993 -2285.3056486428927
2351.4185840037057 2821.39346246723 -1870.2844516134908
2435.246951986567 704.0508471738242 -3273.135561597445
18.030349631151342 3619.108133519668 1382.003009364228
408.4610081860676 3257.1878031066667 108.66745277756948
439.6163192286798 2699.4664358751825 -1840.1548743470853
488.21923816790957 -3.2668072504295957 -3507.9984789008085
466.56770249571974 3244.9472545155277 -18.50176781121834
591.5207664685184 2810.1422187493927 -2004.8453083473153
657.7640857007239 662.5705817577478 -3404.118714761458
754.2684057842044 1199.4464805698951 2726.8606748876064
843.8513873244124 -1553.395637158494 2696.5730092947524
843.4059990743553 -2736.3862773727833 -1256.3085373449949
1042.1601230726098 221.99481951211874 3490.948624673497
1161.5559710982504 3505.3589680849377 1430.4735246996017
1209.5671095812966 3779.8419320799694 -630.0944123621199
1220.6477639088446 3578.1951953493563 1161.5348225424768
1102.4143398315014 3140.7242680622544 -119.58290849790532
1316.7815249530931 2488.04359809418 -2569.9354182513157
