# .PCD v.7 - Point Cloud Data file format
VERSION .7
FIELDS x y z
SIZE 4 4 4
TYPE F F F
WIDTH 853
HEIGHT 1
VIEWPOINT 0 0 0 1 0 0 0
POINTS 853
DATA ascii
-2090.9719098162027 3603.7969242779554 1472.4458321326292
-1924.776201337318 3341.8204204067347 1365.4070007703035
-1631.1655231194125 2918.7700236959654 1192.5563084290213
-1794.154915943152 3235.363537208182 1321.9106558704184
-1658.701021707401 3006.712666338248 1228.488071607187
-1762.6211073653076 3228.883553013488 1319.2630522678166
-1340.1981238971855 2579.0337094884108 1053.746233835475
-1597.2150043891954 3117.7981096758676 1273.875561937502
-1570.8610446126343 3075.2153563964466 1256.4770239775478
-1604.9622880701659 3188.152223789694 1302.6209724800347
-1863.6859598429198 3713.0309435599484 1517.076864290772
-1662.0567173330942 3391.808869908664 1385.831371418945
-1557.9917860116473 3279.79771454323 1340.0656520025443
-1621.1117441770168 3467.717256189371 1416.8461564779934
-1476.380874284946 3189.0779358175073 1302.9992015661205
-1535.281290974219 3360.334660963005 1372.9715824920224
-1481.7944317072258 3264.9863220982143 1334.013986625169
-1253.6986959262235 3040.0382993395338 1242.1043187062814
-1353.3951248664857 3306.643363349822 1351.034295499037
-1115.4717498665639 2778.0617954683134 1135.0654873439557
-1231.9682742243153 3128.9066540096296 1278.4143109705333
-1096.7515045459802 2796.576036024583 1142.630069065675
-1172.0180790137229 3049.295419617669 1245.886609567141
-1061.6433896112633 2773.4332353292457 1133.174341913526
-1202.5916592651884 3180.7465275671857 1299.595139791347
-1129.7684380070311 3173.3408313446776 1296.5693071026592
-1135.1986682342067 3276.0948664319762 1338.5527356582004
-1222.9128447064738 3545.4770665257047 1448.617399709214
-1068.075330490695 3169.6379832334237 1295.0563907583155
-1124.125747223886 3433.4659111602714 1402.8516802928132
-1097.2271629078969 3367.740357185513 1375.9974151807103
-1101.473357625848 3465.865832133744 1416.0896983058217
-1066.063820710595 3371.443205296767 1377.510331525054
-1024.753957314537 3325.157603906092 1358.598877220756
-1000.9543226364109 3352.9289647404967 1369.9457498033348
-1018.2450316135981 3525.1114019138076 1440.2963598153228
-905.6589631843369 3152.975166732781 1288.2482672087683
-868.8910401271216 3130.7580780652565 1279.1707691427052
-881.4221324306202 3271.466306292909 1336.6615902277706
-835.7024531893107 3120.5752457593085 1275.0102491957598
-868.278231333295 3343.6718444623616 1366.1634589424752
-776.1240649727124 3007.6383783660613 1228.8663006932732
-801.1350973136016 3205.74075231815 1309.8073251156677
-771.0855365535404 3105.763853314292 1268.9585838183846
-803.3038349704508 3345.5232685179885 1366.9199171146472
-712.8427217207727 2989.124137809791 1221.301718971554
-736.1633101031297 3129.832366037443 1278.7925400566194
-760.2372820792889 3301.0890911829406 1348.7649209825213
-711.4379761971124 3111.3181254811734 1271.2279583349002
-715.732953565865 3246.472081541944 1326.44940490345
-691.3644463403355 3159.455150927475 1290.89587081137
-695.05286129182 3300.163379155127 1348.3866918964354
-633.0808918394712 3179.8208155393722 1299.216910705261
-609.5232984313151 3193.7064959565746 1304.8903469965503
-605.4804423322773 3200.1864801512693 1307.537950599152
-589.2787248504859 3256.6549138478927 1330.6099248503954
-583.3993682574385 3253.8777777644523 1329.4752375921375
-501.2507310404924 2959.5013529197595 1209.1983882168033
-531.1117877196918 3198.3350560956424 1306.78149242698
-517.006387866593 3209.4436004294043 1311.3202414600116
-546.8131077285017 3429.763063049017 1401.3387639484692
-504.3773732257116 3374.220341380207 1378.6450187833118
-472.5701769838944 3347.374692573616 1367.6763752868192
-469.2034045821073 3363.111797046445 1374.1062697502805
-396.7919755417057 3024.3011948667045 1235.6744242428204
-449.91910529989184 3473.2715283562516 1419.1155309945093
-365.24321549633345 3013.1926505329425 1231.1356752097888
-336.3557294111968 3024.3011948667045 1235.6744242428204
-374.21120660146295 3415.8773826318147 1395.66532765718
-366.457114360589 3450.128727660914 1409.6598038423604
-338.92689724326453 3241.843521402877 1324.5582594730201
-320.333802639811 3165.0094230943564 1293.1652453278857
-57.55887244568744 709.0954133051409 289.72347994184275
-53.06201202981512 667.4383720535335 272.7031710679747
-47.45361371900707 846.1007934215389 345.70138468256437
-42.448580994550916 831.289400976523 339.649719305189
-30.521866015192476 639.6670112191284 261.35629848539605
-33.90739211697879 826.6608408374555 337.75857387475924
-24.874773837768252 632.2613149966204 258.3304657967084
-20.984231679418297 677.6212043594819 276.8636910149202
-19.740581305676546 673.918356248228 275.3507746705764
-12.039656576935126 625.781330801926 255.6828621941067
-0.4332185376695183 537.8386881596434 219.7510990159408
0.5301905414454344 609.118514301283 248.87473864455947
7.261148440483559 785.0037995858479 320.7382650008912
8.698049481829598 796.1123439196099 325.2770140339227
13.617131334386789 705.392565193887 288.21056359749895
11.225560535663883 535.0615520762029 218.61641175768293
29.15752575006211 891.4606827844004 364.2346099007762
30.160351211047026 705.392565193887 288.21056359749895
35.54496912021024 695.2097328879385 284.05004365055345
41.858526981679546 703.54114113826 287.45410542532704
52.008426791143265 730.3867899448514 298.4227489218198
56.59035477886675 759.08386280707 310.14785059048444
54.87295880162075 689.6554607210575 281.7806691340377
68.88510420709275 847.952217477166 346.45784285473627
323.0025930041439 3242.7692334306903 1324.936488559106
354.75795831978814 3502.8943132462837 1431.2188617492598
330.19007929481444 3012.2669385051286 1230.757446123703
395.06379857226136 3550.1056266647724 1450.5085451396437
367.83630152082907 3256.6549138478927 1330.6099248503954
382.3434566689761 3196.4836320400154 1306.0250342548081
424.10864668551284 3272.3920183207224 1337.0398193138567
444.99928979636286 3188.152223789694 1302.6209724800347
441.27536770510955 3124.2780938705623 1276.5231655401035
549.2349514171073 3713.956655587762 1517.455093376858
465.69424971002434 3114.095261564614 1272.362645593158
488.5650563487874 3063.181100034871 1251.5600458584304
534.3784650742303 3153.9008787605944 1288.6264962948542
513.9405966313968 3003.9355302548074 1227.3533843489292
597.388530803892 3330.7118760729727 1360.868251737272
526.4834783712353 2908.587191390017 1188.3957884820757
615.8469689620765 3253.8777777644523 1329.4752375921375
573.0886980598497 2853.9701817490204 1166.0802724030043
706.4789234445905 3379.7746135470884 1380.9143932998277
608.282049531913 2887.2958147503064 1179.6965195020987
693.7942684800422 3169.6379832334237 1295.0563907583155
686.6509288199354 3002.08410619918 1226.5969261767573
825.7009948167325 3584.356971693872 1464.503021324824
851.4928983935821 3644.528253501749 1489.0879119204112
775.9661283786194 3252.952065736639 1329.0970085060517
814.8547063938082 3392.7345819364773 1386.209600505031
865.2039912759054 3461.237271994676 1414.198552875392
833.4202201923126 3228.883553013488 1319.2630522678166
890.3695449347988 3427.91163899339 1400.5823057762973
859.4250204860951 3189.0779358175073 1302.9992015661205
896.5837966185229 3229.8092650413014 1319.6412813539027
957.1864382833437 3331.637588100786 1361.2464808233578
911.216485068308 3153.9008787605944 1288.6264962948542
1095.9019013708137 3730.6194720884046 1524.2632169264052
1029.0275108978292 3464.9401201059304 1415.7114692197356
1030.0971428417945 3341.8204204067347 1365.4070007703035
1073.0069184061633 3392.7345819364773 1386.209600505031
1163.4990207223516 3570.471291276669 1458.8295850335346
1187.7415539678686 3540.8485063866374 1446.7262542787842
1272.9504776419512 3689.888142864611 1507.621137138623
1291.6471582242527 3643.6025414739356 1488.7096828343253
1326.807873882094 3216.849296651912 1314.3460741486992
1195.1167229361283 2606.805070322816 1065.0931064180538
-2100.639902206825 3623.0360103936964 1472.9328115669525
-2066.050256892999 3572.085619043235 1452.219105446732
-1769.4691912238404 3184.862644779731 1294.7949389330563
-1779.7330851755826 3228.4020701155796 1312.495742344881
-1795.468117680315 3291.395281239786 1338.1054153662446
-1597.0774484345498 3075.5508960641964 1250.3546239842194
-1836.2892850417252 3556.337316262184 1445.816687191391
-2133.0559876324587 4154.772821942144 1689.1085808943446
-1585.047026352062 3105.194760122646 1262.4062348178024
-1359.9197056535372 2811.5352317936254 1143.0199649976223
-1344.5668038054894 2823.5780515673705 1147.9159318987654
-1470.5477301477074 3199.684576808956 1300.8207443498477
-1411.3808144161303 3081.109120575156 1252.6143010155163
-1540.3566010270265 3373.8422781523504 1371.6239579971468
-1466.4661404068822 3266.3832709404687 1327.936868725409
-1427.9990690312816 3246.929485152111 1320.0279991158702
-1451.9935941901356 3371.989536648697 1370.8707323200479
-1464.6999094393811 3413.6762204808924 1387.8183100547737
-1449.3562067434386 3439.6146015320364 1398.3634695341586
-1370.9345725963012 3265.456900188642 1327.5602558868595
-1347.1463732346358 3423.8662987509847 1391.9610512788179
-1230.7142007318346 3140.3968486920558 1276.7175226826819
-1245.3385019857465 3190.4208692906905 1297.054615964353
-1173.973481235686 3069.0663008014103 1247.7183341143732
-1608.1764188996033 4221.471516073658 1716.224705269906
-1059.341069610514 3145.955073203015 1278.9771997139787
-1031.3411505317479 3121.8694336555245 1269.1852659116926
-1032.8985027066603 3157.071522224934 1283.4965537765722
-1145.1818410009028 3517.429744685468 1429.9989479723138
-1092.353252367728 3439.6146015320364 1398.3634695341586
-1061.0862846237153 3409.9707374735863 1386.3118587005758
-1012.2848381604564 3393.2960639407083 1379.5328276066855
-903.1209794938528 3354.3884923639926 1363.7150883876081
-855.0393832838721 3195.0527230498233 1298.9376801571002
-815.3930677415661 3142.249590195709 1277.4707483597808
-879.0817356416072 3409.0443667217596 1385.9352458620265
-823.8065496776596 3298.8062472543984 1341.1183180746402
-692.2711072631646 2808.7561195381454 1141.890126481974
-831.3105541752867 3464.626611831354 1408.5320161749942
-734.4412329677931 3191.347240042517 1297.4312288029025
-734.087147114426 3212.653767334528 1306.0933240895401
-689.9837520650073 3278.426090714214 1332.832835626552
-673.9968150413679 3359.9467168749516 1365.9747654189048
-689.1090115248276 3463.700241079527 1408.1554033364448
-656.6951015273038 3443.3200845393426 1399.8699208883565
-582.9135766002534 3223.770216356447 1310.6126781521336
-495.93095657275285 2767.995806457777 1125.3191615857975
-624.1221922824678 3548.926350247571 1442.8037844829955
-512.481416754759 2998.6621236625915 1219.095758384614
-468.01170852545187 2765.216694202297 1124.1893230701492
-478.6820031877021 2973.650113363274 1208.9272117437786
-435.3842558162159 2732.793717888367 1111.0078737209178
-426.59000692597095 2824.504422319197 1148.2925447373148
-382.395004937742 2710.5608198445298 1101.9691655957308
-396.7919755417057 3026.4532462173884 1230.394143541098
-439.0602291277211 3481.3012853642317 1415.3110472688845
-347.5140517333778 2868.9702184068724 1166.3699609876892
-357.1261422686799 2989.398416144326 1215.3296299991193
-306.70453563390123 2759.6584696913374 1121.9296460388523
-326.04902988784505 3223.770216356447 1310.6126781521336
-80.92807522716106 997.7012997172106 405.6120271177724
-60.05353927368813 755.9185334904771 307.3160762563624
-57.52822923537303 755.9185334904771 307.3160762563624
-55.49848502251294 799.4579588263257 325.0168796681872
-49.49522354356535 810.5744078482445 329.53623373078074
-42.448580994550916 831.8809351402555 338.1983290174184
-41.285529274896426 836.5127888993883 340.08139321016574
-37.804499656699896 821.6908568701633 334.0555877933743
-25.36409623084192 618.8156622201456 251.57737615104176
-24.328475730057384 618.8156622201456 251.57737615104176
-19.436214588313668 628.0793697384112 255.3435045365364
-19.632116573227773 670.6924243224331 272.66769510981175
-14.09501075988708 674.3979073297394 274.1741464640096
-12.093087005530991 629.0057404902377 255.72011737508586
-6.786379992132407 625.3002574829314 254.213666020888
-5.798745537287526 631.7848527457174 256.84995589073424
7.072769589433278 765.1822410087428 311.082204641857
13.206115559201885 684.5879855998317 278.31688768805367
14.158189672143548 675.324278081566 274.550759302559
19.39274113956551 797.6052173226726 324.26365399108823
30.746292314942643 894.874146264462 363.8080020387819
27.35996377153054 694.7780638699238 282.4596289120978
29.093162910590767 708.6736251473224 288.1088214903397
47.81326018759161 1119.0558682064907 454.94830896775215
34.79315248069006 704.0417713881895 286.2257572975924
37.61759727432517 632.711223497544 257.2265687292837
39.41168987689473 644.7540432712893 262.12253563042674
52.460557634825335 754.9921627386506 306.93946341781293
54.249601076186195 762.4031287532631 309.95236612620863
344.3362332806381 3518.356115437294 1430.3755608108631
315.7182068073619 3171.893454254159 1289.5223591933636
312.47575979911574 3087.5937158379415 1255.2505908853625
349.87565869960673 3194.1263522979966 1298.5610673185508
335.4179212910777 3016.263167947296 1226.2514023170538
375.2568707359282 3139.470477940229 1276.3409098441325
396.9854299121737 3275.6469784587343 1331.7029971109037
449.3032197559394 3469.2584655904866 1410.4150803677417
421.92462565463364 2989.398416144326 1215.3296299991193
474.00033026371085 3171.893454254159 1289.5223591933636
459.1047975883598 3038.4960659911335 1235.290110442241
539.7986841979954 3386.811468677922 1376.8965377368393
499.75824178221643 3103.3420186189933 1261.6530091407035
536.2720678563667 3136.6913656847496 1275.2110713284842
579.2908793704222 3232.1075531228857 1314.0021936990788
625.4832657737164 3307.1435840208374 1344.5078336215854
597.7096248991137 3132.9858826774434 1273.7046199742863
614.2945601673306 3086.667345086115 1254.8739780468131
599.8563829513898 2989.398416144326 1215.3296299991193
611.662524516119 2928.2579465237723 1190.4731826548548
640.6561502764778 3043.1279197502663 1237.1731746349883
687.1075830653689 3141.3232194438824 1277.0941355212315
659.1868133668185 2991.2511576479787 1216.0828556762183
779.7200908665069 3271.0151246996015 1329.8199329181564
837.0304461725465 3372.915907400524 1371.2473451585972
918.4826050513904 3560.9691700213166 1447.6997513841384
927.8823208959029 3552.631833254877 1444.3102358371932
983.1915373808772 3673.0600309923307 1493.2699048486236
765.7838102388072 2760.584840443164 1122.306258877402
1079.793536935364 3761.0652524158545 1529.0481245108226
1077.8404563619845 3733.2741298610576 1517.7497393543388
1155.2427765672467 3636.931571671095 1478.5820041451946
1091.8601346298813 3420.1608157436785 1390.45459992462
1156.1139503118873 3498.9023296489368 1422.4666912013245
1150.9495774422176 3417.3817034881986 1389.3247614089717
1187.644119396976 3493.3441051379773 1420.2070141700276
1212.0773896491075 3499.828700400763 1422.8433040398738
1139.3798103035076 3216.359250341834 1307.599775443738
1136.8851831642164 3195.0527230498233 1298.9376801571002
1094.4394426056956 3048.6861442612258 1239.432851666285
1125.34620625946 2859.7065108886068 1162.6038326021944
-2048.398623565314 3501.3796719829875 1416.357791175771
-1932.3846023944625 3327.0986610396985 1345.8586477441995
-1979.3417737388427 3467.0796857867017 1402.4829597557277
-1770.7065252890018 3248.3013954536373 1313.9840350224786
-1463.977058919946 2721.750256007956 1100.9866229526247
-1487.3161336928692 2810.744814787508 1136.9861855559802
-1586.975452525777 3058.260931393136 1237.109969046563
-1842.0291838227881 3569.9796443755586 1444.1074540158575
-1533.6678516017394 2998.004198886148 1212.7352652005409
-1582.1274587683547 3147.255490172688 1273.1095316499186
-1604.9100204665012 3250.1554487615444 1314.7340259100483
-1577.6235058818063 3253.8635553773593 1316.2340076851883
-1656.493101299993 3492.1094054434507 1412.6078367379214
-1667.8496161394082 3572.7607243374196 1445.2324403472123
-1619.3214882660704 3480.058058942053 1407.732895968717
-1584.9390685039828 3462.4445525169335 1400.6079825368029
-1502.2917756309714 3292.798674843413 1331.9838163241564
-1437.0348023338847 3214.0014092573515 1300.1092036024352
-1483.525505485368 3387.3553935466866 1370.2333515902217
-1500.6416543038201 3512.5039918304315 1420.8577365011904
-1463.494786644772 3450.3932060155357 1395.7330417675985
-1319.597448175674 3145.4014368647804 1272.3595407623486
-1320.1090808430688 3217.7095158731663 1301.6091853775752
-1219.9194545358423 3042.501478275924 1230.7350465022187
-1205.3606754023108 3065.6771446247653 1240.1099325968426
-1263.388029069848 3226.0527557587493 1304.9841443716396
-1302.2423100152475 3392.9175534704086 1372.4833242529314
-1055.6193783885024 2761.612402127964 1117.1114270353778
-1231.125873234272 3288.1635415736446 1330.1088391052315
-1186.1250316182338 3336.3689275792353 1349.6086021820493
-1188.766958032204 3435.5607795522774 1389.7331146670392
-1090.1807260081741 3334.5148742713277 1348.8586112944793
-1131.9113640443477 3479.1310322880995 1407.3579005249321
-958.8524639571713 3115.7365839382633 1260.35968656123
-1029.3608843025193 3471.71481905647 1404.3579369746524
-1010.9557774594389 3524.555338331829 1425.7326772703948
-914.5376297286762 3419.8013264350648 1383.358192122695
-889.6726838772217 3430.9256462825088 1387.8581374481143
-858.8812667960001 3464.2986058248407 1401.3579734243729
-687.0537227154575 2865.439387370774 1159.1109167392926
-733.0287746416543 3210.293302641537 1298.6092218272954
-756.5322002068425 3361.3986472359843 1359.733479164243
-657.4088911765339 3306.7040746527177 1337.6087479809307
-603.8697489965898 3168.577103213622 1281.7344268569725
-662.9283986773705 3508.7958852146166 1419.3577547260506
-602.8465408575609 3336.3689275792353 1349.6086021820493
-606.2016908073774 3449.4661793615824 1395.3580463238136
-571.6930478533936 3347.4932474266793 1354.1085475074685
-473.34249515522254 2798.69346828611 1132.1112447867758
-537.2869961013366 3340.0770341950497 1351.108583957189
-439.2215407827317 2758.831322166103 1115.986440704023
-489.2703359200133 3241.8122088759615 1311.359066915984
-411.66603164512816 2757.904295512149 1115.6114452602378
-464.7288576755333 3296.5067814592276 1333.483798099296
-422.709260445152 3034.158238390341 1227.3600875081543
-447.3170633364255 3414.239166511343 1381.1082194599853
-402.4329737170674 3111.101450668495 1258.4847093423055
-399.5794440499058 3301.141914728996 1335.358775318221
-374.03745483650994 3367.8878338136597 1362.3584472707375
-325.6347383190508 2976.682585845214 1204.110369993487
-316.02395914129346 3126.8609037857073 1264.8596318866496
-265.2928205213205 2668.9097367325976 1079.6118826568822
-60.94026834654375 751.8186163564211 304.12130490959765
-60.05353927368813 756.4537496261895 305.9962821285224
-41.31816725972086 625.7429914187229 253.1219245548439
-49.51528428757867 834.3239885582972 337.49589940645853
-47.142102031573764 841.7402017899266 340.49586295673816
-42.82674207245338 839.8861484820192 339.74587206916823
-34.29030670672461 695.2699904652477 281.2465828387154
-24.546994973141732 624.8159647647692 252.74692911105893
-19.264212689302042 622.9619114568619 251.99693822348902
-21.909875954651987 749.0375363945602 302.9963185782428
-13.456088568848243 644.2835244977962 260.62183343054295
-11.416301576650023 594.2240851842984 240.37207946615547
-6.786379992132407 625.7429914187229 253.1219245548439
-5.883771131675906 641.5024445359352 259.49684709918813
6.901516088478478 747.1834830866528 302.24632769067284
13.963975822045557 666.5321641926841 269.62172408138184
15.925299350174935 543.2376192168468 219.747330057983
16.57552297132897 534.8943793312638 216.37237106391842
23.19846977184362 565.4862589117348 228.74722070882189
48.56528994219777 1137.4617044011452 460.11940952413846
34.426908770367014 697.124043773155 281.99657372628536
42.86587534024326 701.7591770429233 283.8715509452101
65.21399219629316 1039.196879082057 420.3698924829333
45.573097920805324 656.3348709991938 265.4967741997474
45.15307015454137 635.0132579582596 256.87187899269344
64.07983108377188 806.5131889396873 326.2460360929099
44.29402443010658 546.0186991787078 220.87231638933787
89.5660811326066 1081.8401051639255 437.61968289704123
317.1935255307608 3188.9716896006025 1289.9843266202415
321.75721801097063 3181.5554763689734 1286.9843630699618
340.8446454675113 3113.882530630356 1259.6096956736603
340.46567256357855 3063.823091316858 1239.3599417092728
378.910891607656 3172.2852098294366 1283.2344086321123
384.7480396801525 3176.920343099205 1285.1093858510371
417.5100680242107 3226.0527557587493 1304.9841443716396
402.698093575898 3072.166331202441 1242.7349007033372
418.5112368322936 3002.6393321559162 1214.6102424194657
451.21223524454314 3199.168982794093 1294.109276501876
472.96192410093533 3132.4230637094292 1267.1096045493593
524.5223815242606 3259.4257153010813 1318.483980347898
549.7343022827669 3217.7095158731663 1301.6091853775752
527.4884275608574 2945.163679610789 1191.3605249047987
577.9253713884119 3197.3149294861855 1293.3592856143061
552.3011349944995 3000.785278848009 1213.8602515318958
547.8672750908715 2898.812346913106 1172.610752715551
588.8729953175183 3088.852810973607 1249.4848186914664
616.6912676349702 3100.9041574750045 1254.3597594606708
625.6946343397516 3120.3717172080314 1262.234663780155
636.6243928054513 3049.917691507553 1233.7350100524984
685.5118320309953 3258.4986886471274 1318.108984904113
646.9874705773291 2959.996106074048 1197.360452005358
732.9059704293221 3076.8014644722093 1244.609877922262
816.3680670127962 3380.866206969011 1367.608383483727
720.9358635531738 2907.155586798689 1175.9857117096155
750.6610718638773 3007.2744654256844 1216.4852196383906
808.0926561612389 3135.2041436712902 1268.2345908807142
910.5370303310418 3404.0418733178526 1376.9832695783507
1001.3356321580409 3490.2553521355435 1411.8578458503514
1023.8147064401182 3548.658031334624 1435.4825588088036
1024.903703079644 3455.9553659392577 1397.9830144303082
1019.4067672158561 3418.8742997811114 1382.98319667891
1002.5872414695026 3274.2581417643396 1324.4839074484573
997.0772887578989 3173.2122364833904 1283.6094040758974
1112.2382764051881 3521.774258369968 1424.60769093904
1136.4637478181908 3475.4229256722847 1405.8579187497921
1305.6383535903708 3531.0445249095046 1428.3576453768894
1541.2461823133676 3813.787654365372 1542.7312557313005
1551.378699756931 3554.220191258346 1437.7325314715133
1462.9687723638403 3074.0203845103483 1243.4848915909072
-1903.618631233794 3328.5148791221404 1339.676341308797
-1784.8097156905371 3168.026285452093 1275.0821364463607
-1607.1219566850957 2919.4081172233487 1175.017125445592
-1798.0590171884623 3345.2131143016827 1346.3971256297443
-1820.3925369835877 3442.6194861823474 1385.6017008352692
-1409.110706942839 2709.7524977468706 1090.6339445270335
-1640.2511738279497 3406.439976626672 1371.040001473217
-1648.1380790210708 3476.943636273629 1399.4166463838828
-1532.276151981081 3263.577297868364 1313.539957838447
-1488.687773616908 3191.218278757013 1284.4165591143428
-1589.126361953171 3417.5721334130335 1375.5205243538485
-1487.3390723176599 3251.517461349805 1308.6860580510963
-1585.1885064934913 3476.943636273629 1399.4166463838828
-1513.3008547219536 3386.9587022505393 1363.1990864321122
-1465.9550710573485 3409.2230158232624 1372.160132193375
-1440.4538593781049 3361.9113494812254 1353.1179099506915
-1431.0099256454203 3400.873898233491 1368.7997400329014
-1038.144202662449 2774.690079000647 1116.7703279973834
-1145.2967666516188 3140.1958934861887 1263.880829244782
-1115.7610509308288 3072.475273035822 1236.6243150542741
-1069.7865664442309 3011.2484107108326 1211.9814392108015
-1197.7877236229103 3401.801577965688 1369.1731169396207
-1098.3103249601368 3176.375403041864 1278.4425286068342
-1106.6882297004277 3215.33795179413 1294.1243586890441
-1043.5063218365704 3194.0013179536036 1285.5366898345007
-957.283951366043 2944.4554699926625 1185.0983019270127
-960.090999519223 2967.647463297583 1194.4327245949949
-1049.9888924590414 3310.888964210401 1332.5821800811307
-956.2961291217777 3030.7296850869657 1219.8223542519063
-836.7851053787085 2679.139066584376 1078.3125066052971
-924.0473462532811 3004.754652585455 1209.3678008637664
-1015.0483785321748 3407.3676563588688 1371.4133783799364
-870.7650951856824 2938.8893915994818 1182.858040486697
-994.1793664756717 3449.113244307725 1388.2153391823042
-906.6127479867868 3372.11582653539 1357.2250559246036
-754.1470215816722 2928.684914545317 1178.750894512785
-869.1494544057756 3485.2927538634003 1402.7770385443564
-696.6125872077624 3314.599683139188 1334.0756877080078
-669.5369519145432 3342.4300751050923 1345.2769949095864
-473.0597693120853 2771.9070398040567 1115.6501972772257
-456.63691101538035 2870.241091416918 1155.22814938947
-413.57824220176127 2742.221288373759 1103.7021362622086
-407.514777544505 2732.016811319594 1099.5949902882965
-433.10220313181026 3074.3306325002154 1237.371068867713
-353.6954294052374 2964.8644241009924 1193.3125938748371
-374.34632143835677 3373.043506267587 1357.5984328313227
-339.91548288307524 3365.6220684100126 1354.6114175775685
-59.02320894301211 743.9991452218385 299.4482791888671
-55.385655901754006 780.1786547775139 314.00997855091924
-56.077264124717594 808.9367264756149 325.58466265921714
-45.99989251098497 821.9242427263703 330.81193935328713
-33.261898650026225 812.6474454044021 327.0781702860943
-25.930950179342602 660.507969324126 265.8443575841314
-18.439004516291277 630.8222178938281 253.89629656911427
-13.088224277038002 627.1114989650409 252.40278894223712
-6.645625444147438 613.1963029820888 246.80213534144784
-5.86676601279823 640.0990152157962 257.6300656363071
-0.5204587595410047 647.5204530733706 260.6170808900614
0.46170088183622177 531.5604865487699 213.9449675501507
9.89219361575646 786.6724129028916 316.62361689795426
13.65287183657678 708.7473153983599 285.2599567335343
14.527195987329732 693.904439683211 279.2859262260257
19.753117281531882 813.5751251365989 327.45154719281356
19.729978375814 673.4954855748813 271.07163427820143
16.632977123742588 537.1265649419507 216.1852289904664
31.287376134149707 911.9091767494604 367.0294993050578
22.76348985791341 578.872152890807 232.98718979283427
25.410689603008123 595.5703880703495 239.7079741137814
35.63962949070348 698.542838344195 281.1528107596221
41.80344997249313 704.1089167373758 283.3930721999378
40.48758370974099 663.2910085207163 266.96448830428926
46.989211133033734 677.2062045036685 272.5651419050786
43.235472236981714 544.5480027995252 219.1722442442207
44.29402443010658 546.4033622639188 219.91899805765928
346.79210741895093 3489.003472792188 1404.2705461712335
311.43997538297543 2983.4180187449283 1200.7801320092228
372.709471508329 3356.3452710880447 1350.8776485103756
432.83538144194256 3626.300073157315 1459.5303283656879
393.0559926817082 3247.806742421018 1307.1925504242192
433.58660512629234 3352.634552159257 1349.3841408834985
444.012925143733 3389.7417414471297 1364.3192171522699
506.80934845077263 3396.2354995725073 1366.9328554993049
517.8926070356498 3432.4150091281826 1381.494554861357
539.9463315405003 3392.52478064372 1365.4393478724278
529.9867430248971 3134.629815093008 1261.6405678044664
581.251768763398 3404.5846171622784 1370.2932476597784
581.9474153606564 3251.517461349805 1308.6860580510963
639.8298598175389 3478.7989957380228 1400.1634001973214
644.2302432072704 3411.078375287656 1372.9068860068135
625.8101069685871 3284.9139317088902 1322.1276266929906
636.0492894889827 3200.495076078981 1288.1503281815355
612.4966785946172 3056.7047175884763 1230.2769076400464
652.2981240568926 3127.2083772354335 1258.653552550712
735.048106664245 3496.4249106497623 1407.2575614249877
803.5230755344649 3495.4972309175655 1406.8841845182685
827.6383179177761 3476.943636273629 1399.4166463838828
769.0538688720826 3208.8441936687523 1291.510720342009
856.8010087572317 3457.4623618974965 1391.5757313427778
773.3382559090869 3100.305665001726 1247.8256222558527
909.4029122855337 3530.749060741044 1421.0725069736013
834.5861978041281 3219.976350455114 1295.9912432226406
885.5408851314224 3395.3078198403105 1366.5594785925857
1035.378384061422 3611.457197442166 1453.5562978581793
1183.7090530809905 3519.6169039546826 1416.5919840929698
1214.6439907918266 3512.195466097108 1413.6049688392156
1153.8189553649574 3261.7219384039704 1312.7932040250084
1442.59054927064 3685.671576017911 1483.426450395722
1126.0752935327087 2865.602692755934 1153.3612648558735
1480.8228016939775 3611.457197442166 1453.5562978581793
-1970.6863008931512 3365.196194053927 1347.6199670251867
-1763.1353611119955 3077.4138988382806 1232.3752250175155
-1639.769878778114 2957.6593308291895 1184.418542053033
-1774.7723521440637 3358.6978841619607 1345.017666399207
-1453.4270734637466 2781.2766337615353 1113.784667919299
-1640.3717166150045 3165.605247372108 1267.6921620843825
-1500.4040019734764 2945.5910410298234 1179.5856980333565
-1547.7282304255211 3092.2671785913462 1238.3233407340404
-1359.092370440685 2756.211724178237 1103.7472226476632
-1635.6699409344242 3327.1346646866964 1332.3779205015915
-1503.717290382398 3236.1583261991696 1295.945711737876
-1506.4347237454188 3295.571445211432 1319.738174603976
-1475.5286551948657 3433.8926129118554 1375.1300022141145
-1525.9112489383403 3563.8588107511796 1427.176014733708
-1252.6216179476687 2979.010920474221 1192.9689583955376
-1362.8819562900785 3314.138044902764 1327.173319249632
-1366.8890914866001 3336.4179645323625 1336.0954928244196
-1361.9603390407224 3388.404443668092 1356.913897832257
-1344.4389601024197 3357.769554177394 1344.6459091669242
-1319.6298436820657 3321.564684779297 1330.1473771078945
-1309.604144759753 3335.489634547796 1335.7237355921368
-1273.553220108341 3256.5815858596347 1304.124370848098
-1250.8682127262214 3277.0048455201 1312.3030299583197
-1215.9402791202676 3265.864885705301 1307.841943170926
-1175.3895853555744 3238.943316152869 1297.0609834347244
-1048.694040180389 2953.946010890923 1182.9315131239018
-1047.6411763739202 2964.1576407211555 1187.0208426790127
-1070.403491352797 3097.837158498746 1240.5538841277373
-1095.1934875569725 3184.17184706344 1275.1273067300388
-943.300175059539 2807.2698733294 1124.1938704232177
-1029.8074997240012 3079.270558807414 1233.118739482081
-968.645426834063 2966.9426306748555 1188.136114375861
-1156.341745505747 3594.4937002418774 1439.4440033990406
-858.7608789823317 2709.795224949907 1085.1593610335226
-849.7482898195656 2694.9419451968415 1079.2112453169977
-820.6391812032912 2849.044722634897 1140.9229458759442
-1049.5114291510797 3664.1184490843725 1467.3257958202514
-728.0337307767347 2709.795224949907 1085.1593610335226
-703.9717300390672 2824.9081430361653 1131.2572578365912
-821.4579645472268 3454.3158725723206 1383.3086613243363
-648.3122756037907 2823.051483067032 1130.5137433720256
-698.3141575347438 3062.560619085215 1226.4271093009904
-663.0785190007116 3016.144119856885 1207.83924768685
-719.1162568145886 3295.571445211432 1319.738174603976
-562.671124176211 2679.1603354592094 1072.8913723681899
-684.2109789874032 3283.503155412066 1314.9053305842992
-670.9651846518518 3271.4348656127004 1310.0724865646227
-675.1818458812975 3429.2509629890224 1373.2712160527005
-627.1985721700565 3324.3496747329964 1331.2626488047429
-608.1858694580426 3251.9399359368017 1302.2655846866837
-498.99412203797544 2765.495024023903 1107.4647949704913
-596.5113312993553 3336.4179645323625 1336.0954928244196
-475.4345673508006 2787.7749436535014 1116.3869685452787
-547.3463566038032 3240.7999761220026 1297.80449789929
-442.8926945381543 2757.1400541628036 1104.118979879946
-555.6683807281535 3495.162391893251 1399.66597954478
-416.516382623357 2763.6383640547697 1106.7212805059257
-489.0607692600992 3317.8513648410303 1328.6603481787633
-490.4680002851372 3365.196194053927 1347.6199670251867
-384.40361266896196 2938.164401153291 1176.611640175094
-353.9100158757099 2927.952771323058 1172.522310619983
-334.193663198269 3013.3591299031855 1206.7239759900017
-287.4478229011232 2848.1163926503305 1140.5511886436614
-55.31979899818474 779.7971870359445 312.2760751175605
-42.874012207191186 841.9952960019067 337.1838096805088
-40.69116395864653 826.2136862642744 330.863936731701
-39.7976863671323 836.4253160945071 334.9532662868119
-25.212215415088373 616.4111097522227 246.8468022357859
-19.23554570613344 622.9094196441889 249.44910286176557
-19.388070925218035 663.7559389651194 265.8064210822092
-14.462875051697319 693.4624984712506 277.70265251525916
-5.911691015368675 545.8580309251611 218.59325258229234
-5.016510068914428 547.7146908942943 219.33676704685797
-0.439929323967325 547.7146908942943 219.33676704685797
2.5339495640943572 997.9547334090956 399.63902470402087
7.858586566722788 721.3123980082486 288.85536948374346
17.952436186233804 794.65046678901 318.22419083408545
19.322334194495525 660.042619026853 264.31939215307796
17.49478940994687 565.3529606010597 226.40015446023136
24.988766911331226 635.9060394281214 254.65370411372493
27.381800386438368 668.3975888879523 267.6652072436233
37.20152560384187 729.667367869348 292.20118457428873
42.07883501842523 709.2441082088828 284.0225254640669
52.0099761582072 750.0906275298132 300.37984368451055
56.70236743684272 699.9608083632168 280.3049531412388
59.034982868533525 699.9608083632168 280.3049531412388
349.74274486574876 3521.1556314611157 1410.0751820486987
309.8507009109143 3068.130598992615 1228.6576526946874
366.92974711632274 3517.4423115228496 1408.5881531195676
429.1475612995982 3320.6363547947303 1329.7756198756117
473.44659156013176 3174.888547217774 1271.4097344072106
542.6039837055889 3411.612693282257 1366.207828639327
532.9668401298019 3154.465287557309 1263.2310752969888
559.6989264424458 3129.4003779740106 1253.1936300253528
726.9902260699333 3487.7357520167184 1396.6919216865176
791.475684368367 3709.606618328136 1485.5419002021092
774.0344934561218 3546.220541044414 1420.1126273203347
767.5882373054312 3490.520741970418 1397.807193383366
801.8338166639209 3515.585651553716 1407.8446386550017
849.5849078899438 3698.4666585133364 1481.0808134147155
863.6321935369324 3630.6985696399747 1453.9425354580703
853.0961823828219 3562.002150782046 1426.4325002691423
864.2783919271213 3467.312492356253 1388.5132625762958
893.9762268613507 3451.530882618621 1382.193389627488
804.3299751837135 2905.6728516934595 1163.6001370451957
1057.156320379567 3796.8696368773963 1520.4870800366932
902.6579504272203 3133.1136979122766 1254.680658954484
937.4789773341164 3165.605247372108 1267.6921620843825
933.719105112571 3135.8986878659766 1255.7959306513326
1062.5754077852607 3511.8723316154496 1406.3576097258706
1056.9118092264664 3385.619453714392 1355.7986261354085
1157.9315698682828 3461.7425124488536 1386.2827191825988
1198.9968083790845 3567.5721306894457 1428.6630436628393
1251.6113469175052 3540.6505611370144 1417.8820839266377
1139.4316081495067 2845.3314026966304 1139.435916946813
-1793.0108642902353 3261.639683287843 1299.5489896121571
-1807.090905945625 3322.0232148781906 1323.6078572637634
-1605.932743379908 3092.5657948348708 1232.184160187659
-1542.6782687880204 3021.9635117446182 1204.0537918565499
-1556.4965279193827 3102.7845463347753 1236.2556608671616
-1620.2535932926494 3359.1823112414813 1338.4133142801368
-1506.9029533463095 3173.386829425028 1264.3860291982708
-1596.6887313034972 3373.1169723777157 1343.9653606612767
-1503.717290382398 3238.415248060787 1290.2955789769237
-1458.3057551733077 3203.1141065156603 1276.2303948113693
-1487.6770800440777 3322.952192287273 1323.9779936891728
-1449.184789884242 3304.372644105628 1316.5752651809862
-1272.4067825010586 3167.8129649705343 1262.1652106458148
-1342.9305525179961 3369.4010627413863 1342.4848149596394
-1304.7748782979982 3338.7448082416718 1330.2703129211313
-1222.898038120876 3192.8953550157553 1272.1588941318666
-1239.8031066232927 3318.3073052418617 1322.1273115621261
-1245.235124848389 3361.040266059646 1339.1535871309554
-1146.3118007136438 3147.3754619707242 1254.0222092868096
-1108.0127102993647 3055.4066984715796 1217.378703171286
-1095.1934875569725 3186.3925131521796 1269.5679391540014
-1030.3308459727702 3068.4123821987314 1222.5606131270165
-1049.5679327679475 3217.0487676518947 1281.7824411925092
-1060.130147779345 3265.3555929241725 1301.0295353137944
-1052.1156945807713 3272.7874121968307 1303.990626717069
-1057.3438160542996 3338.7448082416718 1330.2703129211313
-958.0524121871987 3040.5430599262636 1211.4565203647367
-841.0723559362082 2682.8867574295905 1068.9539965821446
-835.9474823153514 2707.9691474748115 1078.9476800681964
-1052.9974544676938 3428.8556169226517 1366.1735461858364
-1007.4920481582246 3297.8698022420517 1313.984310203121
-1016.1537946808621 3415.8499331955 1360.9916362301058
-896.8770535324753 3031.2532858354407 1207.7551561106432
-847.8453272183089 3276.5033218331596 1305.4711724187064
-783.0516112590186 3045.187946971675 1213.3072024917833
-790.391403936699 3194.75330983392 1272.8991669826853
-743.7494981348044 3129.7248911981615 1246.9896172040321
-670.0948105753969 3073.057269244143 1224.4112952540631
-701.4867306950823 3342.4607178780007 1331.7508586227689
-663.7762953757282 3318.3073052418617 1322.1273115621261
-646.1664066344064 3256.994796242432 1297.6983074851105
-658.8151825653258 3464.1567584677778 1380.238730351391
-618.5919075818206 3430.713571740816 1366.913819036655
-556.1777006671203 3263.497638106008 1300.2892624629758
-545.1513268150741 3230.0544513790464 1286.9643511482398
-515.8196522297202 3246.776044742527 1293.6268068056079
-506.33953265499804 3361.969243468728 1339.5237235563648
-489.2944833267809 3284.8641185149 1308.8024002473903
-428.61306448934175 3278.3612766513243 1306.211445269525
-425.69638161370364 3297.8698022420517 1313.984310203121
-406.87308737010915 3368.4720853323042 1342.11467853423
-400.0653871401543 3358.253333832399 1338.0431778547274
-333.37001892667746 3008.0288506083843 1198.50174547541
-374.41403110368594 3429.784594331734 1366.5436826112457
-310.2150396432916 3075.8442014713896 1225.5217045302911
-328.96678334877186 3316.449350423697 1321.3870387113075
-58.65523382491353 740.3949950385677 294.9987310512359
-49.551789513329425 813.7842103560669 324.23950865857296
-43.346713554569256 851.8722841284399 339.41510210035545
-33.337839057903004 815.6421651742314 324.9797815093916
-32.01306911185695 816.5711425833136 325.34991793480094
-20.18155615069738 654.0000959939167 260.5760434881682
-11.968416005473971 624.2728189032841 248.73167787506966
-0.42949032305962576 535.0909876313864 213.198581035774
0.5181041309261616 597.3324740398984 237.99772153819907
7.1840843650538995 779.412046220023 310.5444609184277
7.18094782802211 659.5739604484104 262.7968620406242
15.816594235156677 540.66485208588 215.41939958822996
18.18423923891029 588.0426999490758 234.2963572841058
28.40861790092981 693.9461245844543 276.4919097807694
34.28956737899587 695.8040794026189 277.23218263158805
31.14326189227475 611.2671351761325 243.54976791933905
41.58314193574745 701.3779438571124 279.453001184044
39.638193841704464 650.2841863575877 259.09549778653087
45.12251644418719 651.2131637666699 259.4656342119402
52.074343681879824 733.8921531749918 292.4077760733706
57.41850631221602 772.909204356447 307.9535059405624
55.75681854070726 703.235898675277 280.19327403486267
343.19601803066615 3457.653916604202 1377.6477753735257
354.4419013450482 3244.9180899243624 1292.8865339547892
384.22583105744195 3223.5516095154703 1284.3733961703745
390.47379107311656 3230.9834287881285 1287.334487573649
434.54639838611814 3364.756175695975 1340.6341328325927
473.20973272827547 2977.3725961086693 1186.2872434369021
497.37133674683867 3097.2106818802818 1234.0348423147057
520.1173865446864 3050.7618114261686 1215.5280210442393
581.9804242438738 3059.122608107909 1218.8592488729232
630.8193071567694 3028.466353608194 1206.6447468344152
616.0830376631335 2934.639635290885 1169.260967868073
642.1244266393849 2943.9294093817075 1172.9623321221663
840.2019420397536 3660.1709917841363 1458.3375161127597
735.1141836574911 3092.5657948348708 1232.184160187659
815.1908712243477 3294.153892605723 1312.5037645014836
894.5917705997995 3591.4266635120484 1430.9474206324692
941.824873753607 3638.804511375244 1449.824378328345
1030.275083871138 3702.9039526019205 1475.3637916815887
886.7073034833754 3097.2106818802818 1234.0348423147057
899.4484999368124 3124.1510267436674 1244.7687986515762
989.5498003148045 3399.128339832019 1354.3291805727379
950.9500828735215 3213.3328580155653 1280.3018954908719
1002.822058421672 3370.330040150469 1342.8549513850487
1064.75219217217 3484.594261467588 1388.3817317103963
1179.8684532542534 3743.7789586015406 1491.6497943995992
1048.722683567414 3310.8754859692035 1319.1662201588515
1194.7444152330213 3443.7192554679677 1372.0957289923856
1395.186216870919 3180.818648697686 1267.3471206015454
-2000.1366857826313 3557.6634084340662 1410.3049571951815
-1993.3343458103745 3609.722240645278 1430.9417686932036
-1494.3065554721957 2929.2389338844373 1161.1891612547731
-2104.771096243302 4161.917710885632 1649.839376368651
-1579.7973741457208 3151.4185927858593 1249.2641246124028
-1603.0208330735659 3207.1959130121577 1271.3749940745693
-1564.6270536093841 3177.448008891465 1259.5825303614138
-1497.031873670006 3105.8671146010493 1231.2069145516334
-1466.760046802248 3090.993162540703 1225.310682695056
-1329.3280183779873 2810.2473174016677 1114.0193064021514
-1555.3325169706884 3341.061481555274 1324.4410807837685
-1711.2009440467507 3687.810488962096 1461.8969859402364
-1523.8329839351545 3338.272615543959 1323.3355373106604
-1614.794481801534 3549.296810400121 1406.9883267758566
-1546.319089629265 3456.3346100229573 1370.1368776722459
-1466.289814361432 3429.3755719135797 1359.4499574321987
-1293.5160578259388 3235.084573125307 1282.4304288056524
-1237.3834895341895 3118.881822653852 1236.366117426139
-1244.146774604129 3185.8146069254103 1262.8991607807386
-1036.7558453202057 2776.7809252658885 1100.7527847248516
-1138.518271581058 3062.174880423782 1213.8867334729364
-1076.6824633982274 2971.071924054161 1177.772313351398
-1072.2490962699565 3038.0047083257195 1204.3053567059976
-971.3745850315491 2894.842919744887 1147.5541250864371
-952.8852384124825 2922.731579858036 1158.6095598175204
-1088.843434278131 3372.6686296835096 1336.9705734789961
-908.6418023515592 2960.8460820126734 1173.7186539500008
-829.2652858361499 2716.3554950207317 1076.7993428075047
-1062.6247046676476 3499.0972221964525 1387.0885442599067
-940.7091425329494 3164.4333008386625 1254.4233274869082
-971.6923397803931 3322.469041479841 1317.0707909630464
-912.0887087274116 3170.940654865064 1257.002928924161
-829.5759070684388 3208.1255350159295 1271.7435085656052
-799.7732747087231 3112.3744686274504 1233.7865159888863
-773.1983802508578 3169.0814108575205 1256.2658999420887
-752.6250097426527 3147.7001047707727 1247.7900666482583
-827.4185571413615 3484.2232701361067 1381.192312403329
-719.51789877106 3137.474262729285 1243.736407246861
-759.0647374718372 3333.6245055251006 1321.4929648554796
-694.3038232195817 3162.574056831119 1253.686298504836
-731.4729023542195 3356.865055619392 1330.7058271313824
-665.0281374099293 3170.940654865064 1257.002928924161
-646.213347533594 3155.137080800946 1250.7381825765472
-672.8818492596617 3366.161275657108 1334.3909720417435
-648.2161171743588 3440.5310359588393 1363.872131324632
-581.9056003159543 3259.25474522337 1292.0118055725911
-548.4200270739838 3220.210621064961 1276.5341969490746
-553.9314459699905 3284.354539325204 1301.961696830566
-551.093156345 3471.2085620833036 1376.0331095288236
-526.7666041575208 3500.0268442002243 1387.457058750943
-513.7868825204574 3451.6865000040993 1368.2943052170654
-471.7860450530583 3355.9354336156202 1330.3373126403462
-461.58353095966186 3322.469041479841 1317.0707909630464
-446.466881570649 3417.2904858645484 1354.6592690487294
-393.6323194965093 3261.113989230913 1292.7488345546633
-347.49801261966377 2919.0130918429495 1157.135501853376
-357.35865833678116 3226.7179750913624 1279.1137983863275
-60.94026834654375 753.9234450588 298.8652522302828
-56.594573163561485 714.8793209003911 283.3876436067663
-78.09974905093031 1007.7102520884577 399.46970828314
-19.78021838633692 641.4391826024315 254.27499881491383
-13.030140441489017 625.6356085383137 248.0102524673
-11.683453719629352 609.8320344741958 241.74550611968618
-5.067525425547457 554.0547142478974 219.63463665751976
-0.4511139677970027 562.4213122818421 222.95126707684474
0.47137001025164 543.8288722064094 215.5809772561226
7.038518889242319 764.149287100288 302.91891163168
13.545650330006806 704.6534788589031 279.3339842053691
15.762241677647546 539.1807621875512 213.73840480094205
17.46606233374006 565.2101782931571 224.05681054995307
26.156125365583197 666.5389767042658 264.22489007288874
37.07952135663529 906.381453677349 359.3016287602043
30.169325637861515 612.6209004855107 242.8510495927945
31.889588318937445 538.2511401837795 213.36989030990597
41.56347754258726 682.3425507683837 270.48963642050256
45.44436035605728 656.3131346627778 260.17123067149157
54.05185040397652 762.2900430927448 302.18188264960776
314.242888083963 3168.151788853749 1255.8973854510527
353.9345410511103 3242.52154915548 1285.3785447339412
330.06112402230127 2978.5089000843345 1180.7204292796869
393.27528821360994 3047.3009283634356 1207.9905016163589
405.3714062067579 3101.219004582191 1229.364342096453
441.88348545612297 2967.3534360390745 1176.2982553872537
494.0893423231943 3078.9080764916716 1220.5199943115865
528.418270864421 3131.896530706655 1241.5253203006446
532.3125871427195 3124.4595546764817 1238.5772043723557
532.3033990431567 2980.3681440918776 1181.457458261759
557.3283665059361 2957.1275939975867 1172.2445959858564
566.4279561802659 2979.438522088106 1181.088943770723
615.5295746349948 3209.9847790234726 1272.4805375476774
622.1627870276733 3111.444846623679 1233.4180014978501
643.5815208256855 3067.7526124464116 1216.097820419153
823.7283344487805 3751.024785218567 1486.9559713306917
794.073476849606 3342.920725562817 1325.1781097658409
939.7147388530227 3775.19495731663 1496.5373480976305
924.6481536908767 3690.5993549734108 1463.0025294133447
983.4219386398398 3802.1539954260074 1507.2242683376776
903.5939375071669 3387.542581743856 1342.8668053355739
1006.4955284982968 3619.948082686766 1434.9954280946006
1006.6577599376197 3579.0447145208136 1418.780790489012
1029.8522724614663 3482.364026128563 1380.4552834212568
995.2069276874508 3259.25474522337 1292.0118055725911
1135.4388757167076 3623.6665707018524 1436.4694860587451
1000.1068576467815 3175.588764883922 1258.8455013793416
1162.8053876733925 3464.701208056902 1373.4535080915707
1193.1116368465455 3473.0678060908467 1376.7701385108958
1176.14497365104 3407.994265826832 1350.9741241383683
1232.577928427412 3491.6602461662796 1384.1404283316178
1317.4392253306303 3634.8220347471124 1440.8916599511783
1331.9450122030942 3581.8335805321285 1419.8863339621203
1339.5533597481867 3485.152892139878 1381.5608268943652
1104.1826982965054 2826.980513469557 1120.6525672408013
1111.4935480677334 2834.41748949973 1123.6006831690902
1499.1191699009614 3792.857775388291 1503.5391234273166
1128.753248238562 2844.6433315412182 1127.6543425704874
1075.573462079384 2618.7451846247095 1038.1053212487134
-1963.612885186014 3392.6719570497485 1338.0530601766982
-1861.6256458831128 3224.2942152822675 1271.6457106039036
-1758.121222556266 3090.3362328816193 1218.8133440929507
-1786.1806755169116 3171.269180582011 1250.7328988599847
-1965.1113089686203 3579.6549741506533 1411.7982384315696
-1896.9977544729963 3482.907542416852 1373.6415292847705
-1615.5808824209407 3115.4533545817408 1228.7194128137544
