# .PCD v.7 - Point Cloud Data file format
VERSION .7
FIELDS x y z
SIZE 4 4 4
TYPE F F F
WIDTH 28800
HEIGHT 1
VIEWPOINT 0 0 0 1 0 0 0
POINTS 28800
DATA ascii
2153.2864778241387 428.85741724840045 5449.150146185278
880.5232560196054 239.22333245566338 2530.7185140210295
3419.340827122846 550.5011131801355 3868.02243069859
2464.8143044097415 563.2961581366592 3814.634115905283
5948.0667727341115 1025.397100455899 6701.000058676066
2248.4301973545457 930.9960780130027 5334.3670011281
2336.3480992252066 1015.0518769912615 5476.729835131227
6081.128960684596 -5654.09796946434 3888.215548513125
433.60703425773494 738.2501663160363 3661.312837212131
4688.526893379066 -3530.026188685183 -3993.4715608348533
1727.0538600006187 1121.8914836526294 5278.084453559615
2546.637985281182 909.9674728606378 3973.1266275234198
1473.2110100114996 1759.557587751042 6707.03459774793
234.80190388622438 864.6152941933168 3035.255572937311
1195.697241652265 1559.9046081093134 5166.653328180567
2923.7042427240535 1521.658683077173 4946.228851581358
3496.982444225483 2152.4956226593117 6868.621884660161
4421.067341975862 1663.7474977147167 5120.488283733107
5294.40514199377 2019.301185047263 5897.8961269309175
2684.0969386821525 2290.5561945342324 6577.581418704056
5083.14013503757 2050.581407298208 5341.947200416988
5118.465700201626 -5556.644808883782 -1470.7829438448478
1966.9578442659208 2117.0843024895826 5347.144570343334
668.2165502214006 2785.8495510041685 6627.27419676973
938.1236960199002 1696.073355077196 3976.388332921872
3123.1174985949306 3636.313824923113 -6009.475664870692
2241.2357744355436 765.4303131451858 3977.0109926574833
3587.170744829828 2060.8004045038765 4762.228752674178
74.68370263408806 2175.6343038124555 4886.554652930272
5253.984129325604 -6578.162730919158 2750.395441667652
3536.0143302764636 2274.308941530904 4581.565653624597
1766.8928748607873 3027.960731672527 6020.429785941297
228.84996187208694 2071.8598690560216 3963.1024063219925
3365.869228365916 3162.7376145872154 5973.371893769479
4329.837786397716 -4582.1913315346055 -4008.399506188115
1389.6954739026 2023.9349259341582 3774.622685194362
1766.4838584105958 2177.6490510367644 3864.7044661291607
1852.6991152258754 1561.6857228989484 2737.926533509179
2079.077964880855 1249.9999999999998 2165.0635094610966
821.9997743629214 2154.263271455571 3642.6602582806895
2786.547033694413 -4937.767719306874 1441.9382615670472
1455.388235409712 2722.604154452735 4144.7687050252525
2747.9973803674297 3388.416456016996 5099.976756867939
2077.8031941944596 1639.746055897391 2385.8453160607355
3318.926610124121 4070.3291647253664 5856.436159541578