# .PCD v.7 - Point Cloud Data file format
VERSION .7
FIELDS x y z
SIZE 4 4 4
TYPE F F F
WIDTH 852
HEIGHT 1
VIEWPOINT 0 0 0 1 0 0 0
POINTS 852
DATA ascii
-110.48249973195507 1673.1272463087898 390.08873049495617
-43.33816654797388 689.5076195498389 160.7583359664895
-127.85894916793886 2087.0265942024075 486.5891440341624
-130.5840024284006 2188.3101993340224 510.2033628766976
-106.45715509598855 1832.8437005547976 427.32653713126166
-99.36067047040788 1758.828758343233 410.06999259248596
-51.97053318679002 974.854699391792 227.28685635940113
-111.87008488802263 2162.989298051119 504.2998081660638
-115.36106159634537 2301.2803742885158 536.5422992779869
-88.11153115127273 1815.3138458204796 423.23946079313055
-83.62262795546573 1781.2280171704172 415.29236791343124
-42.27123846098292 932.0039433745703 217.29622531063623
-42.705872216474965 975.8285802103652 227.51391615596395
-95.36590120993166 2261.351260727014 527.2328476189105
-91.09462028674513 2244.7952868112693 523.3728310773422
-71.38398340416587 1830.8959389176512 426.87241753813595
-70.18109690392302 1876.6683373905926 437.54422797658935
-33.683894591736795 940.7688707417293 219.3397634797018
-38.08356490795716 1113.145775629189 259.5293474713242
-74.65567550984326 2288.619923647064 533.59052192267
-71.13249929222968 2292.5154469213567 534.4987611089214
-53.693259474795724 1824.0787731876387 425.28299896219613
-50.68014623668882 1820.183249913346 424.37475977594477
-27.406020672069555 1044.0002375104905 243.40810191536264
-22.52549869989955 913.5002078216792 212.98208917594232
-52.96871202214878 2296.41097019565 535.4070002951727
-49.771434810918755 2317.8363482042605 540.4023158195552
-36.96068068767093 1859.1384826562746 433.4571516384583
-32.752852729265825 1790.9668253561492 417.5629658790596
-15.819972310457526 947.5860364717419 220.92918205564166
-13.545834708372992 896.9442339059344 209.12207263437406
-31.73346267826806 2349.0005343986036 547.668229309566
-27.399898288902246 2299.3326126513693 536.0881796848612
-18.901325015124332 1830.8959389176512 426.87241753813595
-16.154862933792227 1850.3735552891155 431.4136134693927
-7.201445405257104 1008.9405280418546 235.23394923910047
-5.173035308197097 932.9778241931435 217.5232851071991
-9.213167875032823 2331.470679664286 543.5811529714349
-5.20969749434353 2208.76169652406 514.9716186045172
-1.3958435499437836 1823.1048923690655 425.0559391656333
1.4608441514294417 1765.6459240732456 411.65941116842583
2.196875343010178 907.6569229102398 211.61973039656527
12.95098953769553 2310.045301655675 538.5858374470524
15.326742155727226 2128.903469401056 496.3527152863645
15.421377760979825 1753.959354250367 408.93469360967174
17.507353084938412 1685.7876969502415 393.04050785027306
33.99560903689065 2241.8736443555495 522.6916516876537
32.96452982162513 1967.239253517902 458.6607890569333
31.648214689237538 1724.7429296931705 402.1228997127866
34.22048038726602 1715.9780023260114 400.07936154372106
50.267537948900866 2033.4631491808807 474.10085522320634
49.73893224832573 1890.3026688506175 440.7230651284691
45.16697529008659 1618.5899204686896 377.37338188743723
42.2862561764233 1433.552564939778 334.23202054049796
69.42840066880788 2025.672102632295 472.2843768507036
75.0635756026034 2092.869879113847 487.9515028135395
61.687598316877526 1646.8324642073128 383.9581159877595
64.27117035150117 1645.8585833887396 383.7310561911967
30.041609670846054 739.175541297073 172.33838559119425
97.52538589867002 2225.3176704398047 518.8316351460854
91.15933285556301 2007.1683670794039 467.9702407160097
74.3932536593702 1582.5563301814805 368.9721694146122
106.3483203471134 1992.5601548008055 464.56434376756715
-379.2201737904265 1880.351964301922 434.94423820290245
-307.93104174556066 2120.9980447074013 490.6080863045174
-225.13634739046168 1585.146448662812 366.6602464021359
-280.36979948253475 2042.0817187444707 472.35394988253034
-297.37761294184156 2191.1458900077837 506.8339853462838
-199.82295370806818 1489.667437003958 344.57499492862064
-180.42310933146268 1361.0630539532565 314.8275133520491
-107.03594476137431 827.1600091670113 191.3303928674944
-234.99525388100562 1838.4581122475267 425.2537707196254
-281.90295833413705 2233.039742062179 516.5244528295609
-199.4283513435815 1599.7605831003916 370.0406420358372
-216.44562501767183 1758.5675106554245 406.77427458872484
-111.508421796797 917.7676426800055 212.28884579644256
-124.89499333090309 1041.500647584847 240.909528828447
-259.06239131443886 2189.19733874944 506.3832659284569
-270.7282546733306 2318.775997429313 536.3561072139419
-199.62140717910208 1733.236344296953 400.91492215697593
-198.98134607966736 1751.7475812512205 405.1967566263309
-111.3086731780699 993.7611417554199 229.86690309168938
-103.92602886563735 941.150257780133 217.69747881036466
-250.0455092265777 2297.3419335875296 531.3981936178467
-251.11006127702302 2341.1843369002686 541.5393805189506
-193.04162615426813 1826.7668046974632 422.54945421266433
-193.19033836742193 1855.9950735726225 429.31024548006695
-99.96859291385671 975.2499048011523 225.5850686223344
-102.84790491579717 1019.0923081138914 235.72625552343834
-231.6936013707525 2332.4158562377206 539.5111431387298
-231.61569348478628 2369.4383301462562 548.0748120774398
-175.11081518976505 1820.9211509224313 421.1972959591838
-162.64044050716592 1719.596485488545 397.759886232188
-82.90142014625377 891.462200692362 206.2041336557802
-205.39105759390554 2286.624901666638 528.919236819799
-195.1442075689883 2211.6056782203955 511.5665392334656
-135.9175651477725 1568.5837629668883 362.8291313506078
-93.98011548864228 1104.8285634810256 255.55790990781938
-169.2240350961557 2107.3581858989933 487.4530503797296
-147.24299094621233 1870.609208010202 432.69064111376827
-88.59257260243537 1148.6709667937648 265.69909680892334
-102.6650579495036 1359.1145026949125 314.37679393422223
-123.63210717092672 1746.8762031053607 404.0699580817638
-131.50688087822806 1900.8117525145335 439.6767920900843
-108.3346063714451 1602.6834099879077 370.71672116257747
-112.28314582770288 1701.0852485342775 393.478051762833
-45.72543843409108 727.7838949914693 168.34370255832548
-118.49177463720326 1934.9113995355528 447.56438190205404
-123.02907571914733 2062.541506957082 477.0865037697122
-101.81874557533443 1753.6961325095644 405.64747604415777
-97.38005909890472 1724.4678636344051 398.8866847767551
-45.01994056317776 820.3400797628074 189.75287490510047
-48.80349769788474 915.8190914216615 211.8381263786157
-112.07156185315189 2167.763274907656 501.4253523323617
-112.38305704392172 2242.7824983538985 518.778049918695
-82.0136837700956 1690.3682166133858 390.9990949647854
-84.94851981479242 1810.2041190015393 418.71833916113616
-37.23579312707273 821.3143553919793 189.97823461401387
-42.02394212120191 960.6357703635725 222.20467298863306
-94.873054175255 2250.5767033872744 520.5809275900025
-92.16167223804322 2272.0107672290583 525.5388411860977
-71.27007279235072 1828.7153559558071 423.00017363049113
-68.25084359001129 1825.792529068291 422.32409450375087
-33.78850296003411 944.0730846676489 218.37355793710492
-35.81787600704632 1047.346301359879 242.26168708192753
-73.797929450794 2263.2422865665103 523.5106038058769
-70.01444386580125 2257.396632791478 522.1584455523964
-53.29192171043527 1811.1783946307114 418.94369887004956
-51.00554043403514 1832.6124584724948 423.90161246614485
-25.84653628681187 984.992661092872 227.8386657114686
-25.7914558674756 1046.3720257307068 242.03632737301413
-52.02524895814104 2256.4223571623065 521.933085843483
-49.41592456226934 2302.213311733389 532.5249921624137
-36.43792616773006 1833.586734101667 424.12697217505826
-33.12686572943689 1812.1526702598833 419.169058578963
-15.299685451326344 916.7933670508335 212.06348608752913
-14.693038950775916 973.3013535428083 225.13434920450754
-32.25972242417632 2388.9238427296955 552.5820062557082
-27.10976806559748 2275.9078697457458 526.4402800217514
-18.760570467139363 1817.9983240349152 420.52121683244354
-15.551181213634727 1781.9501257555519 412.18290760264694
-7.479493490402166 1048.3205769890508 242.48704679084096
-4.930043044242118 889.513649434018 205.75341423795334
-8.982261411999419 2273.959318487402 525.9895606039246
-5.154568420329313 2186.2745118619237 505.70718680171666
-1.413738980071268 1847.2265929100747 427.28200809984617
1.4898515366756964 1801.4356383389916 416.69010178091537
2.060159924668343 851.5168998963107 196.96438559032993
12.568793387763538 2242.7824983538985 518.778049918695
15.424900614181105 2143.406384178357 495.7913596095261
15.027494708783783 1709.8537291968255 395.5062891430538
18.28613193389292 1761.4903375429403 407.4503537154651
9.448911354673035 789.1632596293041 182.54136421987099
32.5631268142241 2148.2777623242164 496.91815815409325
32.556552967397096 1943.6798801981006 449.5926192822748
31.737565944712514 1730.313517409437 400.2388430302356
30.12256815019841 1511.1015008457414 349.53290852471594
49.06381338115899 1985.5737322524958 459.28308676555196
51.32770803369214 1951.4740852314765 451.3954969535822
41.57970649448404 1490.6417126331298 344.8003546375341
44.12478905365909 1496.4873664081617 346.1525128910146
32.08308763298363 982.0698342053562 227.16258658472833
70.73018318134802 2064.4900582154264 477.53722318753904
75.93681403446243 2118.075217819885 489.93200717777717
64.31415483894446 1717.6479342302014 397.30916681436116
61.26677836465585 1569.5580385960602 363.0544910595212
39.38261083332256 969.4042510261204 224.23291036885385
94.75114078557876 2162.891896761796 500.29855378779456
92.79586624501272 2044.0302700028146 472.8046693003572
74.85105829727402 1592.9406536961878 368.4631240734433
110.76650569877744 2076.18136576549 480.2415396945001
106.84167763782021 1944.6541558272727 449.8179789911883
-240.29631442331643 1554.5946177733497 356.73600097289403
-247.78964060846855 1689.0987289035832 387.60093397242974
-313.3060438522815 2158.888450387442 495.4045405360253
-232.33185449820846 1636.4666854178397 375.52335149435055
-279.70097839598293 2038.0296838646234 467.67083262339906
-277.94030342541174 2048.751026056164 470.13108090597075
-186.49271088385433 1390.8504824843699 319.16129992998106
-189.0761861569516 1426.9131789468238 327.4366805168131
-248.81850410930008 1947.3856089725095 446.87055168892937
-284.3628445325152 2253.4311951673885 517.099457209612
-192.62689721736925 1545.8226105257258 354.72307055988085
-219.56340133371586 1784.616141155488 409.5195095807956
-121.21509970267529 998.0594912852101 229.02674921394578
-122.67515715383372 1023.4008455561236 234.84188151820612
-264.48114182257353 2235.887180672141 513.0735963835856
-267.6569677505659 2293.3925615176754 526.2694735355609
-197.82604882335974 1718.3387530623295 394.310702015807
-201.74805000179845 1776.8188013798224 407.73023810256166
-109.45352862510207 977.5914743740876 224.32991158358166
-114.14649754289982 1034.122187747664 237.3021298007778
-248.773012996417 2286.5698892139676 524.7038609921062
-251.94604982892324 2349.9232748912514 539.2416917527571
-185.83473877784212 1759.2747868845745 403.7043772765353
-185.58441953405887 1783.6414736835297 409.2958506460164
-102.96465463954672 1004.8821635889176 230.59236175740048
-105.99430353654814 1050.6915347709537 241.10433169202494
-235.4680585359402 2371.3659592743325 544.1621883179005
-228.66335528658382 2340.1766001716696 537.0051024049646
-177.17204468905604 1843.0961894729808 422.93904566755026
-162.27185027372192 1716.3894181184132 393.86338414624856
-94.86096928210678 1020.476843140249 234.1709047138684
-89.23562853591763 976.6168069021295 224.1062526488024
-206.35369143861496 2298.2658988774665 527.3877682094571
-202.709269360209 2298.2658988774665 527.3877682094571
-157.2760396709939 1815.805500258151 416.67659549373144
-118.17958085256075 1389.8758150124117 318.93764099520183
-171.41463749222245 2135.4964310604446 490.03672610132344
-161.50715569412665 2052.6496959439964 471.0257166450877
-82.50605998089401 1070.1848842101178 245.57751038760983
-106.56559420134855 1411.3184993954924 323.8581375603452
-126.32126064536405 1785.5908086274462 409.7431685155749
-133.93345582011233 1936.6642667809692 444.4103034063577
-99.37806748602472 1470.7732151849434 337.50133258187907
-109.51786789494732 1659.8587047448368 380.8911659290524
-114.85229918258624 1876.23488351956 430.54344945004453
-124.0751424942747 2080.915052630785 477.5118257536858
-98.65105126854625 1699.8200710951235 390.0611822550014
-102.33158752766259 1812.8814978422763 416.0056186893937
-52.17820764507889 979.5408093180041 224.77722945314014
-111.769346405458 2162.787120275275 496.29917627514226
-108.52629704979931 2166.6857901631074 497.19381201425927
-88.67877276812642 1828.4761773936077 419.5841616458616
-85.31428308633082 1818.7295026740255 417.34757229806917
-34.89475275253554 769.9873028469883 176.6905584756027
-43.174699156975194 987.3381490936698 226.5665009313741
-94.09271303701698 2232.963178256266 512.4026195792478
-95.87659384626625 2364.5432869706246 542.5965757744458
-71.49789401598103 1835.298849697315 421.1497741893163
-67.85022497768998 1815.805500258151 416.67659549373144
-33.33520003074573 931.7821031920516 213.8179416489572
-32.58593742780587 953.2247875751324 218.73843821410057
-75.00512760797444 2301.189901293341 528.0587450137949
-67.47615587066647 2176.4324648826896 499.43040136205167
-52.689915063894574 1791.4388134591954 411.08512212425035
-48.64643250327434 1748.5534446930342 401.2441289939636
-24.696096986211934 941.5287779116338 216.05453099674963
-24.06241971993534 976.6168069021295 224.1062526488024
-51.59844423870897 2238.8111830880152 513.7445731879233
-48.78855353524095 2273.899212078511 521.7962948399761
-36.36048105366475 1830.425512337524 420.0314795154201
-32.41446001482534 1773.8947989639478 407.05926129822393
-16.63292052785 997.0848238132519 228.80309027916653
-14.957778391330436 991.2368189815027 227.46113667049107
-30.549378249974477 2263.1778698869707 519.3360465574044
-25.937641963446218 2178.3817998266063 499.8777192316102
-19.142618525955708 1855.7668666084376 425.84661181968045
-15.738237521289165 1804.1094905946522 413.9926882763805
-7.194494203128477 1008.7808334767504 231.48699749651746
-4.795047342044908 865.5047150988931 198.6091340839686
-9.05153335090944 2292.417894045717 526.0458146007817
-5.090251167312726 2159.8631178594 495.62819947080453
-1.4085194796174183 1841.1468545290643 422.49172779799176
1.4342540482870414 1734.9081000856193 398.1129039070542
1.9753020788009967 816.7713415009825 187.4261873450064
12.56333344276451 2242.709852975848 514.6392089270403
14.646644265011059 2036.080348920707 467.22351475384056
15.541255211648185 1769.0214616041567 405.9409666243277
17.163476710075383 1654.0106999130876 379.5492123203769
33.24244828064329 2193.9764793779377 503.4562621880781
33.24195408250019 1985.39764037888 455.59325014531987
30.987015398722694 1690.0733963755413 387.82459290720897
31.326694020805956 1572.1386322685976 360.76186179892045
47.73971635664292 1932.7655968931365 443.5156676672407
54.88964084282005 2087.7377249344922 479.0774382971405
39.188193964082345 1405.4704945637432 322.51618395166975
47.457129893648975 1610.150663674968 369.48456025531095
31.35103305405642 960.0474598788398 220.30405075755527
72.99995781859751 2131.597761172612 489.14209036220643
75.0635756026034 2094.5603972381996 480.6430508405952
60.48375991093018 1615.9986685067172 370.8265138639864
62.29359587914729 1596.5053190675528 366.35333516840154
30.55615634505027 752.4432883517404 172.6646976495763
98.7631260260492 2255.380530111305 517.5467750791704
88.50549492672566 1950.3096113883842 447.5415284932671
77.36898380574502 1647.18802760938 377.98359977692223
51.16393025159423 1053.6155371868283 241.77530849636267
113.05356635140353 2119.901751509113 486.4581831448555
103.68353185594076 1887.9308931830585 433.2273566673955
100.30243522489383 1595.5306515955947 366.1296762336223
-274.62490344107295 1675.146801978389 381.322949508125
-340.0305841087305 2200.702172331329 500.958030873014
-183.0089753261382 1209.0698687154845 275.22727438304713
-273.95554033804143 1868.207958434571 425.27053041767607
-318.1152562635581 2192.901721565423 499.1823710382847
-179.7862115119294 1252.9474042737077 285.2153609533997
-233.99235613845772 1648.820280643455 375.3300975659135
-294.41504230012356 2146.099016969985 488.5284120299087
-276.88249066261284 2041.7679879759874 464.7789617404038
-211.32355536033108 1576.6661110588213 358.9052440946671
-184.68507254401692 1394.3305744057602 317.39919545786887
-112.07886324247556 866.8250913613433 197.3201991342975
-254.17345690044118 1990.0900016518578 453.01521533532195
-279.1970835159211 2213.377904825927 503.8434781044492
-199.30689680561343 1600.0674633565404 364.2322235988551
-221.8417763339019 1803.8542396158437 410.6213367811591
-113.2840336088479 933.1289228715473 212.41330772949686
-113.09481154753433 943.8545426746686 214.85484000224972
-255.71890695835575 2162.674974847536 492.3016891787085
-275.6195634762521 2362.561525723886 537.8029724436477
-201.6411853293122 1752.1762532917141 398.8575903760772
-210.93350702327362 1858.4573949771882 423.0509556242644
-114.69158383348183 1024.7842193709469 233.27731078756656
-105.97012260108984 960.4305005522195 218.62811715104954
-252.69654303941252 2323.5592718943544 528.9246732700011
-251.8415512599357 2349.8857932292885 534.9175252122126
-192.83571508637024 1826.2805355678245 415.72635880600586
-190.65503208963423 1833.1059299879926 417.28006116139403
-98.27082460263236 959.4554442064812 218.40615967170837
-97.24338237258452 964.3307259351727 219.51594706841422
-234.2099061475443 2359.636356686671 537.1371000056242
-228.8538287187259 2343.06039880912 533.3638228568244
-172.11266319079635 1791.178507121246 407.7358895497239
-165.03627702455194 1746.3259152172843 397.5258455000302
-90.87445290348911 977.9815147755088 222.62335177919056
-91.90735394118462 1006.2581488019193 229.0601186800844
-210.2917389851534 2343.06039880912 533.3638228568244
-201.84960324757026 2289.432299793514 521.1561614930603
-153.1394181230182 1768.7522111692651 402.63086752487703
-139.5613002494476 1641.994886223287 373.7763952105253
-181.6635272738204 2264.0808348043183 515.3852670301899
-165.9551210456268 2110.021932177668 480.3159852942855
-87.39029850435313 1133.990530093636 258.1365484737773
-100.97237240625013 1337.7773063529391 304.5256616560812
-134.31976841548536 1899.4097614981965 432.3731697565934
-124.56418035005916 1801.9041269243671 410.17742182247673
-96.87550515039256 1434.3078845810303 326.49945211085674
-105.65934054691628 1602.017576048017 364.67613855753746
-112.40609436882727 1837.0061553709456 418.1678910787587
-125.17932409024249 2100.271368720285 478.09641050087384
-98.7641832080744 1702.4483796590612 387.5377589296777
-99.47070443549138 1762.9018730948353 401.29912264883
-44.32485834545649 808.3217106170457 184.0027503738275
-44.857682990396185 842.448682717886 191.77126215076834
-108.29386875697823 2096.371143337332 477.20858058350916
-105.93885047146401 2115.8722702520977 481.6477301703325
-86.64615697440071 1787.2782817382927 406.8480596323592
-82.11385446036985 1751.2011969459759 398.635632896736
-39.70934522092335 876.5756548187262 199.53977392770918
-35.75870937088074 818.0722740744286 186.22232516723915
-91.17670141518013 2164.6250875390124 492.74560413739084
-90.89701807354177 2242.629595198076 510.50220248468423
-68.30839688515661 1754.1263659831907 399.30150533475955
-66.24775052840477 1773.6274928979567 403.74065492158286
-38.49587953341348 1076.4622056950766 245.04105719264842
-30.486843299020823 892.1765563505389 203.09109359716786
-73.3214038624333 2250.430045963982 512.2778623194135
-66.78114844342718 2154.8745240816297 490.5260293439792
-52.48924618171435 1785.3281690468161 406.40414467367685
-46.63983495297205 1677.0969146698656 381.7668644668073
-26.40897327821628 1007.2332051476576 229.28207615942557
-24.590736320572642 998.457698036013 227.28445884535506
-50.63251776841533 2197.7770032941144 500.29215843499054
-48.43304328659153 2258.2304967298887 514.0535221541429
-34.908385164940114 1758.026591366144 400.1893352521242
-33.10905558657159 1812.6297467274883 412.6189540952295
-16.24270538350161 974.0812893925556 221.73552186182587
-14.545961483801182 964.3307259351727 219.51594706841422
-30.444126300792824 2256.280384038412 513.6096071954605
-26.413455529666038 2219.228242900357 505.1752229804962
-17.916043179229554 1737.5504081056397 395.5282281859597
-15.338617227663779 1759.0016477118822 400.4112927314654
-6.304740330664279 884.3761055846326 201.31543376243852
-9.055381791959997 2294.3075815222055 522.265948889766
-4.9386462137736284 2096.371143337332 477.20858058350916
-1.390624049489934 1818.480084801918 413.95069897127655
1.4817939296628477 1793.1286198127225 408.1798045084062
1.8763012586224266 776.144851207682 176.67815355556897
12.77627129772662 2281.6318490276076 519.3805016583309
15.565126983400933 2164.6250875390124 492.74560413739084
15.421377760979825 1756.0764786746674 399.74542029344184
17.22416077622768 1660.5209567923146 377.9935873180075
31.78043034204547 2098.3212560288084 477.6524955421915
31.724280184771906 1895.5095361152435 431.48533983922874
30.05776234178291 1640.0447735318103 373.332480251843
29.850668760061225 1498.6616033997577 341.14864574737373
47.13785407277198 1909.1603249555794 434.5927445500051
53.48024296870469 2034.9425935558195 463.22525938501565
38.61749211023649 1385.5550672941156 315.40157814379836
48.290215103646446 1639.069717186072 373.11052277250184
25.494596422638775 781.0201329363734 177.7879409522748
70.02922336690334 2045.6682133589406 465.6667916577685
76.00667310901116 2121.7226083265277 482.9794750463795
63.475115949950855 1696.5980415846313 386.20601405363067
59.55541584050345 1526.9382374261684 347.5854126482676
95.98888091295794 2192.901721565423 499.1823710382847
86.2939633193612 1902.3349305354113 433.0390421946169
73.47764438356256 1564.9654349099617 356.24175434257313
61.48191063535699 1266.5981931140439 288.322765664176
108.84329560452368 2041.7679879759874 464.7789617404038
103.84411553976514 1891.6093107322902 430.59750992186406
70.2782637218725 1244.171897162063 283.21774363932917
133.69573223012728 2127.5729464009573 484.3112199224265
102.64872818533824 1593.2420689363723 362.67852124346695
-433.27664620274015 1968.4424591431932 444.4752918243015
-319.8628822966164 1951.8599409046233 440.7309509120056
-262.9834750551968 1685.5642068381753 380.6012409674891
-308.09151284995744 1994.7793998750396 450.42218621441856
-224.48117054117435 1483.6476612273523 335.008383976592
-292.8293040774054 1997.7057266230227 451.0829522577649
-330.5626295633327 2279.608536678713 514.7367477667951
-207.90841269005998 1449.5071825008847 327.29944680421806
-235.3761075053321 1659.227266106329 374.6543465773721
-131.22811351998746 935.4491171052142 211.22487852304516
-295.75268447322725 2156.702813263429 486.9845739462491
-296.7164799650923 2188.8924074912416 494.2530004230588
-217.988676772438 1627.0376718785164 367.38592010056243
-183.9101701417343 1389.0297630425705 313.64361524172716
-129.09871311619233 998.8528633115113 225.54147612888244
-268.49484227209757 2103.053489550409 474.87052981823297
-277.5981574869753 2201.573156732501 497.11631994422623
-195.05598797673076 1566.5602524202022 353.73008853807147
-206.13298027998775 1676.7852265942265 378.6189428374501
-116.48013487053953 959.8351733384054 216.73126221759796
-121.85732277280816 1017.3862660487366 229.72632773674255
-260.2153169544675 2201.573156732501 497.11631994422623
-266.06444860542865 2281.559421177368 515.1772584623594
-197.60162902889195 1717.7538010659878 387.8696674442988
-204.07208129638855 1798.7155077601826 406.15086131021405
-110.43566397667327 987.1475563195795 222.8984119554971
-114.14649754289982 1034.9442265366342 233.69092399682057
-250.89384004668486 2307.8963619092146 521.1241528524764
-254.45401548462382 2375.2018771128223 536.3217718494421
-196.85098091037904 1865.0455807144626 421.1282249593977
-189.74232182963067 1825.052448492029 412.0977557003311
-114.5494266455481 1118.832259978812 252.63288390608218
-98.52160681226461 977.393133826303 220.69585847767598
-233.91956328868372 2357.6439166249247 532.3571755893641
-230.8537997562179 2364.472012370218 533.8989630238389
-173.6117391902807 1807.4944880041314 408.13315944025305
-169.45935982587997 1793.8382965135443 405.0495845713035
-88.42818148933736 952.0316353437843 214.96921943534107
-97.25080475171862 1065.1829362657913 240.51883977806602
-209.67915381124743 2337.159629389044 527.7318132859398
-203.91280191790318 2313.7490154051807 522.445684939169
-160.99055697938022 1860.1683694678243 420.0269482204871
-146.02554099734365 1718.7292433153154 388.0899227920809
-81.16605795025787 973.4913648289925 219.81483708654753
-183.85412966988716 2292.2892859199724 517.6000672879626
-173.08720341958397 2201.573156732501 497.11631994422623
-116.62058751397768 1513.8863709565094 341.8362997578374
-98.61733165041923 1307.092614099048 295.14216602802975
-134.04395780272256 1896.2597326929472 428.17639608842524
-131.57428573772484 1904.0632706875685 429.93843887068215
-92.06795118983602 1363.6682645600515 307.91697619939225
-99.5500055792005 1509.9846019591987 340.955278366709
-113.3607108815137 1853.3402737225308 418.48516078601233
-118.20554558939332 1984.0495351324355 447.99937738881533
-100.74399214981702 1737.2626460525407 392.274774399941
-100.13090822599243 1775.304893776319 400.8647329634434
-40.10089717622722 731.5816869957358 165.1915108365838
-102.85399069848816 1991.8530731270569 449.7614201710722
-99.78756237957255 1993.803957625712 450.2019308666364
-82.43911498273586 1701.1712828274178 384.1253265320029
-81.01656464575467 1728.483665808592 390.292476269902
-43.85662925224825 1003.7300745581496 226.642752867793
-87.56248982755137 2079.642875566545 469.5844014714623
-90.30421143393173 2228.8855397136754 503.28346968212537
-70.89037075296686 1821.1506794947184 411.21673430920265
-66.46626977148911 1780.182105022957 401.966009702354
-36.961623465052796 1033.9687842873066 233.47066864903846
-27.488137400756482 804.7398556953094 181.7106619202422
-74.1156131763678 2275.706767681402 513.8557263756667
-65.96527015927671 2129.3904302822552 480.81742420834996
-51.77257160249924 1761.6487022857318 397.78115809449383
-50.3818682224547 1812.3716992507696 409.23443617916365
-23.315569825492013 889.6033313868148 200.87287717728591
-27.256333714697217 1107.1269529868803 249.98981973269684
-50.65498117470123 2199.6222722338457 496.675809248662
-47.07373939469669 2195.720503236535 495.79478785753355
-34.52115959461355 1739.213530551196 392.71528509550524
-32.39664987196005 1774.3294515269913 400.6444776156613
-19.29939068089731 1157.849949951918 261.44309781736666
-30.470439288088237 2259.1242494428325 510.1113854633708
-24.82354190595591 2086.4709713118386 471.12618890593706
-18.790732155993286 1823.1015639933737 411.6572450047669
-14.887981577405363 1707.9993785727113 385.6671139664777
-6.791324479668138 953.0070775931118 215.1894747831232
-8.68593145110655 2201.573156732501 497.11631994422623
-5.051201406552655 2144.9975062714975 484.34150977286373
-1.3443941883272659 1758.722375537749 397.1203920511475
1.469707519143575 1779.2066627736297 401.74575435457183
2.112017497142832 873.9962553975724 197.34879161277212
12.1975171278296 2179.1379849979653 492.05044694523764
14.394236800415369 2002.5829378696608 452.1842289966754
14.933305283258642 1701.1712828274178 384.1253265320029
17.082564621872315 1647.521959114397 372.01128240398674
32.10532321728943 2120.6114500383064 478.83512607831096
31.805875555617515 1901.1369439395855 429.27767282733583
29.146379535938127 1590.9463086533935 359.2364722326243
28.296957959277297 1421.2193572703827 320.91204171853684
47.691567373933246 1932.3510959180703 436.32584395636337
55.58152707193123 2115.734238791668 477.7338493394004
38.15549537140889 1369.5209180560175 309.2385082860849
45.446234559172325 1543.1496384363388 348.4439601913008
32.78331375195747 1004.7055168074772 226.86300821557512
73.16685301251292 2138.169410526204 482.79972233838896
76.84498200359585 2145.972948520825 484.5617651206459
63.6939956601231 1703.122167326073 384.5658372275671
60.506172798365895 1551.9286186802876 350.4262583213398
39.18470826632094 965.6878268343713 218.05279430429064
96.24496507724328 2199.6222722338457 496.675809248662
90.45164274120638 1994.7793998750396 450.42218621441856
75.81244803687204 1615.3323648865846 364.74285592717706
62.14453322880964 1280.7556733672016 289.19527163791275
100.37077545956792 1883.578983451688 425.3130765672578
114.87086182903917 2093.299067057132 472.6679763404118
82.00966667858006 1452.4335092488675 327.9602128475644
82.16431323473311 1415.366703774417 319.59050963184416
130.87721541867637 2083.544644563856 470.4654228625907
127.08591010950995 1973.3196703898316 445.5765685632121
130.74814141206912 1807.4944880041314 408.13315944025305
-319.8628822966164 1952.6261882830381 437.32364311943286
-285.0509541541572 1827.720565044543 409.3489173226875
-322.8558005073148 2091.1933640632437 468.3581045501972
-242.19171654047807 1601.3291229247704 358.6447268160866
-118.21600969695952 798.2249985085084 178.7759820448256
-294.40211772235244 2009.2240488129812 449.99969074608305
-325.61196972819505 2246.349567929812 503.10795925084176
-226.79645825746113 1581.8126192937555 354.27367591034516
-233.85398100177028 1649.1445568207569 369.3538015351532
-140.1226154791107 999.2449859079616 223.79780637396263
-119.33593827627338 860.677810127756 192.7633449431983
-297.7591477328828 2172.1868541319554 486.4979658090242
-296.05534698834293 2184.8725814921154 489.33914889775616
-216.02834694534775 1613.0390251033793 361.26735735953145
-187.78468215314726 1418.8498139747815 317.77540084740394
-105.90128810312652 819.6931525026247 183.58413804114122
-255.54332854468657 2002.3932725421262 448.46982292907353
-275.01527697867823 2181.945105947463 488.68349126189497
-189.83344284410347 1525.2147587638124 341.5976282836949
-203.85460527980172 1658.9028086362644 371.5393269880239
-109.85118410554948 905.5657684790901 202.81676202640364
-115.43148120760735 964.1152793721348 215.92991474362802
-260.2153169544675 2202.4374347600287 493.27309471292347
-270.27324920329136 2318.560631364567 519.2808476020851
-199.84582697356987 1737.9446483418747 389.2420831562768
-205.62143549278196 1813.083187321282 406.07062914338144
-112.72731313033941 1008.0274125419182 225.76477928154628
-122.86079188877625 1114.3923573309494 249.58700671783723
-253.33279115449287 2331.2463587247266 522.1220306908172
-253.9315226396862 2371.255191168307 531.0826850475871
-191.90911528082978 1818.9381384105864 407.3819444151039
-192.5818648607529 1853.0920197648622 415.0312835001514
-101.96596739765005 996.3175103633093 223.1421487381014
-98.81658168296 980.7043074584974 219.64530801350824
-233.04853471210194 2349.787037174191 526.2745290512715
-228.66335528658382 2342.9562609033355 524.744661234262
-176.42250668931385 1837.4788168600503 411.53444277555826
-171.855196343266 1819.913963592137 407.6004969603909
-91.32746612833203 983.6317830031496 220.30096564936946
-82.91254507678575 908.4932440237424 203.47241966226485
-212.30451884227304 2367.3518904421044 530.2084748664388
-206.23390042202772 2341.0046105402344 524.3075561436879
-152.8861555792646 1767.219403788397 395.798659514889
-151.66103293140685 1785.760082237861 399.95115787534337
-78.31955291192217 939.7196498333662 210.4661011114512
-79.54300657158072 972.8977060060915 217.89688765121167
-190.34770105822784 2374.1826667129594 531.7383426834483
-180.4493529668946 2296.1166521889 514.2541390604825
-130.07102898627278 1689.1533892643374 378.31445589192316
-104.65212358723593 1387.6234081651576 310.78171939821766
-148.17925170681625 2097.048315152548 469.66941982191963
-125.44044352351737 1816.0106628659341 406.7262867792426
-96.01936540399208 1422.7531147009843 318.6496110285523
-93.1834354549493 1413.9706880670276 316.6826381209686
-107.57334827335221 1759.4128023359908 394.0502391525924
-114.54431187644751 1923.3514328365159 430.7670667608206
-97.12377008491623 1675.4918367226269 375.2547202579041
-94.51917600673352 1676.4676619041777 375.4732728031912
-102.2999290443827 1981.9009437295606 443.88021947804503
-100.37339934070508 2006.296573268329 449.34403311022186
-84.14083983329692 1736.9688231603238 389.0235306109897
-82.93682182133124 1770.1468793330491 396.4543171507502
-90.27314851827295 2144.863749048535 480.3784945409862
-87.45873956380346 2159.501126771796 483.65678272029226
-69.52344341118496 1786.7359074194117 400.16971042063045
-67.12182750074216 1798.4458095980206 402.7923409640753
-37.833359867530454 1058.7703219825569 237.12951163647406
-71.25645964620358 2188.775882218318 490.2133590789045
-63.94068330601444 2064.8460841613737 462.4571858274462
-48.73387138662719 1658.9028086362644 371.5393269880239
-47.941411742357324 1725.258920981715 386.40090006754485
-19.63416406357222 749.4337394309712 167.84835478047196
-20.98857767986376 852.87120867535 191.0149245809017
-49.12746954726013 2134.1296720514765 477.9744165428284
-46.59275494064159 2174.138504495057 486.9350708995984
-34.695411101260504 1748.6787253389327 391.6461611544346
-31.541763014426195 1728.1863965263672 387.05655770340604
-16.047597811327417 963.139454190584 215.71136219834094
-30.08890097230475 2231.712190206551 499.8296710715357
-24.10401895216009 2026.7889020808948 453.93363656125035
-17.564156809267132 1704.7665921691494 381.8112966165163
-15.109048122815151 1734.0413476156716 388.36787297512853
-5.102182362411886 716.2556832582459 160.4175682407115
-8.443479664921476 2140.9604483223316 479.5042843598379
-4.665297888453135 1981.9009437295606 443.88021947804503
-1.3578157609228791 1776.9776556039044 397.9841849677597
1.4270022019754778 1728.1863965263672 387.05655770340604
2.114374659528036 875.3151878510171 196.04163312250438
11.4877242779559 2053.136181982765 459.83455528400134
14.029648240443814 1952.6261882830381 437.32364311943286
15.121684134308923 1723.3072706186133 385.9637949769707
16.28355775086704 1571.0785422966974 351.8695979121873
29.668626652959734 1960.4327897354442 439.0720634817294
34.53116094186078 2064.8460841613737 462.4571858274462
28.824715016228204 1574.0060178413496 352.52525554804856
29.190341669728056 1466.6652478707679 328.48447556647056
51.25459209444921 2077.531811521533 465.29836891617816
55.4790254083592 2112.6615180573604 473.1662605465128
39.514309309137126 1418.8498139747815 317.77540084740394
44.957874263656564 1527.166409126914 342.0347333742691
27.054190960353257 829.4514043181322 185.76966349401195
73.60078051669296 2151.69452531939 481.9083623579957
75.83202542263935 2118.516469146665 474.4775758182352
62.5631171575665 1673.5401863595255 374.81761516732996
60.84844530319637 1561.3202904811899 349.6840724593166
39.738835453925475 979.7284822769467 219.42675546822116
94.36701453915073 2157.5494764086943 483.21967762971815
85.36512004426812 1883.3426003929353 421.80641240405066
75.12574108001631 1601.3291229247704 358.6447268160866
65.03167452885336 1340.783799450722 300.2911972244381
104.47708890405568 1961.4086149169948 439.2906160270165
116.20905919424233 2118.516469146665 474.4775758182352
83.55182293579983 1480.3268004124782 331.54421120048954
87.71366037257174 1511.553206222102 338.5378926496759
131.67375277843425 2097.048315152548 469.66941982191963
122.87693533079657 1908.7140551132547 427.48877858151457
152.41013785756573 2107.7823921496065 472.0734978200774
127.48641432310728 1725.258920981715 386.40090006754485
-479.0210406387132 1799.1460753073573 399.6528489903876
-322.5803580582568 1969.9819750245506 437.6014374729258
-164.78402199673366 1025.9916034444018 227.90837997227206
-288.24693388573075 1848.9325375106534 410.71215191958447
-319.9933365737455 2073.4597199961077 460.5874396394918
-194.9026100206625 1275.9001196021247 283.4217436952993
-232.15574047420597 1535.5706871722587 341.1035981887573
-165.76254660441634 1119.7072970035479 248.72589136840728
-309.4153388786647 2112.507925645752 469.2614027212148
-330.70407698719373 2282.3676202217043 506.99314212670987
-226.09690101422404 1577.5475082456262 350.42810850160953
-226.24334848396117 1596.0954059292073 354.54824096542796
-133.1438524034909 949.8476024275955 210.99415196291218
-118.65943068967319 856.1319088684494 190.17664056677697
-301.23701738295244 2198.4139780749692 488.34412150100536
-287.7250714813016 2124.222387340645 471.8635916457317
-228.70514649386482 1708.3589971719343 379.4858848253816
-192.69239736760366 1456.4980707317293 323.5388229482682
-133.63733974918347 1034.7774497155717 229.86002166565973
-261.7700178367111 2051.9832068888036 455.8167599445441
-272.8013794001379 2165.2230032727716 480.9712528815408
-195.66326066657115 1572.6664825394207 349.3438631163942
-209.13084212233778 1702.5017663244878 378.18479036312317
-105.82646399823409 872.7273962695482 193.86307487650924
-127.69899692299072 1066.992219376528 237.01604120808122
-256.6412474703787 2173.0326444027005 482.70604549788544
-271.1832601433698 2327.273056718795 516.9681996706913
-202.42665460994948 1761.0740747989541 391.1957349857077
-200.75203658983125 1770.8361262113651 393.3642257561384
-123.42167584744809 1104.08801474369 245.25630613571806
-120.2787787492573 1091.3973479075557 242.43726813415807
-251.5300881617652 2315.558595023902 514.3660107461744
-252.78203838082342 2361.440236662234 524.5579173671989
-192.52684848452344 1825.503614120867 405.5077740705506
-183.1505255073827 1763.0264850814362 391.62943313979383
-110.85428385053041 1083.5877067776269 240.7024755178135
-97.24338237258452 965.4668846874532 214.4637371956014
-235.95196330070786 2379.988134345815 528.6780498310173
-229.044302150868 2347.7733646848583 521.5220302885958
-173.51804694031293 1807.9319215785272 401.6044906837753
-172.96096704359798 1832.3370501095549 407.02571760985217
-93.23012167267228 1004.5150903370974 223.1377002773244
-90.21526118451553 988.8958080772397 219.6681150446352
-211.0793484944611 2354.6068006735463 523.0399738278974
-209.5865982613187 2379.988134345815 528.6780498310173
-157.2760396709939 1818.6701781321792 403.98983053124914
-153.98152961013875 1813.7891524259737 402.90558514603373
-84.01256298859356 1008.4199109020618 224.0050965854967
-78.26648891346107 957.6572435575243 212.7289445792568
-188.4700418615992 2351.678185249823 522.3894265967682
-180.4493529668946 2297.010697340321 510.245878282356
-138.93780045962933 1805.0033061548038 400.95394345264606
-119.8126984528974 1589.2619699405195 353.0302974261264
-155.62613825141193 2203.2950037811747 489.4283668862208
-133.52902666313162 1933.8623847986298 429.578021622332
-91.08009763629701 1350.0917103364486 299.902273550573
-87.91011474597356 1334.472428076591 296.4326883178838
-117.23884046430231 1918.243102538772 426.1084363896428
-112.45217832619277 1888.956948301539 419.6029640783505
-86.0368400111576 1484.8080198277212 329.8274461825174
-92.97870049556441 1649.786688697468 366.4749402027971
-103.81100628285216 2011.9587960979181 446.925947785778
-95.14968643727343 1902.6238202789143 422.6388511569536
-80.50103945848576 1662.4773555336023 369.2939782043571
-84.76563817902323 1809.8843318610093 402.03818883786147
-32.60478268024286 746.7969330494456 165.88954393795254
-84.8518311368298 2016.8398218041236 448.0101931709934
-84.02046105406514 2075.41213027859 461.0211377935779
-69.06780096392433 1775.7171519175706 394.4484711413538
-66.21133065455737 1774.7409467763296 394.2316220643107
-32.77728873316003 917.632832766639 203.8381324204907
-69.69980939089196 2141.794079882985 475.766875032507
-63.06436959340839 2037.3401297701869 452.56402378889794
-53.06258584508643 1806.9557164372861 401.3876416067322
-46.88388060098179 1687.858689205871 374.93205420747705
-22.405426745209255 910.7993967779513 202.32018888118918
-49.015152515830636 2130.079618188092 473.1646861079901
-45.735347870369466 2134.9606438942974 474.2489314932055
-33.90159868209104 1709.3352023131754 379.7027339024247
-31.47052244296504 1724.9544845730331 383.1723191351139
-15.868749203501075 952.7762178513188 211.6446991940414
-29.338980834385477 2176.937464967665 483.5734418060577
-23.349680371567693 1964.124744177104 436.30034301066735
-18.328252926899818 1779.621972482535 395.31586744952614
-15.262094192714235 1752.2882285277842 389.24409329232003
-8.358813961809227 2120.317566775681 470.99619533755936
-4.65151561994958 1976.8154110132384 439.1193810122273
-1.2847427545689847 1682.0014583584245 373.6309597452186
1.3891314490150894 1682.9776634996656 373.84780882226164
11.30754609298796 2021.7208475103291 449.0944385562088
13.482765400486484 1877.2424866066456 417.0007751538336
15.190185534690842 1731.787920561721 384.6902626744154
15.66660307831866 1512.1417637824723 335.8992203397235
29.71293022685664 1964.124744177104 436.30034301066735
35.95092039457434 2150.579926154155 477.7185167258947
29.450173804553057 1608.7860727653417 357.36727896698795
30.530417235404194 1534.5944820310176 340.8867491117142
20.293681494481444 879.5608322582359 195.38101841581076
50.773102267352456 2058.816642877491 457.3347034838456
54.50525960442495 2076.388335419831 461.237986870621
42.91134415345772 1541.4279180197054 342.40469265101575
50.12874798088224 1703.4779714657288 378.40163944016626
24.767244095068335 798.5358055352242 177.38254502123553
23.903173424970937 733.1300610720701 162.85365685934948
73.83443378817454 2159.365772425325 479.67015841928236
76.49568663085222 2137.889259318021 474.8994787243347
61.32279879992378 1641.000842426298 364.5232985094094
59.85965806701943 1536.5468923135 341.3204472658004
30.081190184246378 741.9159073432401 164.80529855273716
93.47071996415201 2137.889259318021 474.8994787243347
87.00165343371783 1920.1955128212542 426.54213454372893
68.48757383041097 1460.4028912966937 324.4062192564405
71.65790046337989 1477.9745838390336 328.30950264321586
103.64543048491892 1946.5530516347642 432.39705962389195
113.85383183148477 2076.388335419831 461.237986870621
81.18351154078375 1438.9263781893892 319.63553956149286
92.86662557199332 1600.9764316354128 355.6324863506433
60.67635491590881 1018.1819623144729 226.17358735592745
140.7420242587545 2242.343209430819 498.1023299679438
120.92949923915307 1879.194896889128 417.4344733079198
95.00832278405177 1440.8787884718715 320.069237715579
73.2995824990511 1085.5401170601092 241.13617367189963
141.1910582652727 1953.3864876234518 433.9150031631935
144.35961621881265 1954.3626927646928 434.1318522402366
-477.0124625137236 1925.8199549198594 424.26583792767354
-343.9825289639239 1987.3446289360618 437.8199696667422
-286.9385771404572 1736.3630222350457 382.5277179692716
-325.6175368506785 1989.2977931905443 438.2502595632206
-211.03643540209657 1314.4795432668006 289.5851003299435
-297.68268356942417 1910.1946408839985 420.8235187558466
-344.098296014329 2230.5135786191477 491.3910617782994
-232.4813841026877 1522.4915363691991 335.41097430489
-245.2910620903562 1623.0794954750538 357.5709039735261
-115.23604743500528 770.523298393392 169.74936416071725
-127.1761473512523 859.3922719723511 189.32755445048312
-308.2714744096123 2105.51106633226 463.85250840368366
-324.6218377611675 2241.2559820188017 493.7576562089304
-237.1499054573699 1655.306705674017 364.6706872654192
-232.8853550449582 1643.5877201471214 362.08894788654897
-147.10137855473047 1049.825786784406 231.28081935712427
-118.11822462039304 852.5561970816619 187.82153981280882
-302.84218799067685 2210.9819360743213 487.0881628135157
-304.3856224953843 2248.092056909491 495.2636708466047
-228.96652380414352 1710.9718869267715 376.93394931505276
-199.53736858776654 1508.8193865878209 332.3989450295414
-253.79985554291972 1990.2743753177856 438.4654045114598
-272.30940216046224 2162.152829712256 476.3309154015564
-206.2298054697938 1658.236452055741 365.31612211013675
-215.48630922811984 1754.9180826526306 386.6154719858161
-125.35819393079407 1034.2004727485453 227.8385001852973
-125.71282771192865 1050.8023689116474 231.49596430536346
-261.5988277225019 2215.8648467105277 488.1638875547116
-273.57203886107567 2348.6800160153457 517.4236005152408
-196.14290036485127 1707.0655584178064 376.073369522096
-204.84675839458524 1807.653517523661 398.2332991907321
-113.05469158086315 1011.7390838219951 222.89016637579604
-106.61562588596958 967.7928880961363 213.2086437050327
-251.21196410422502 2313.5230594346585 509.67838237863015
-252.99103551879847 2364.3053300512065 520.8659196870677
-193.86527042585968 1838.904145595383 405.11793753438604
-182.1364029962676 1753.941500525389 386.4003270375769
-105.06189784752972 1027.364397857856 226.332485547623
-106.78090319173589 1060.5681901840605 233.6474137877553
-232.56462994733428 2346.726851760863 516.9933106187624
-231.04427318836 2369.1882406874133 521.9416444282637
-175.20450743973282 1826.208577941246 402.32105320727663
-174.34318041901298 1847.6933847405546 407.0542420685387
-101.20315442990761 1090.8422361285411 240.31690718317006
-88.43411091433754 969.7460523506188 213.63893360151107
-208.19144696033288 2323.2888807070717 511.829831861022
-210.27433115142966 2388.719883232239 526.2445433930474
-154.3213099938684 1785.192128597111 393.28496538123085
-149.17478648990837 1757.8478290343544 387.26090683053366
-85.63913729621396 1028.3409799850974 226.5476304958622
-82.01625953418754 1003.9264268040646 221.16900678988256
-188.54827766145874 2353.562926651552 518.4993252564367
-179.22232804234284 2282.272431362937 502.7937440349762
-135.55640455877304 1761.7541575433197 388.1214866234904
-120.69583873633398 1601.5946886757451 352.837715112264
-61.67286456420327 835.9543009185596 184.16407569274267
-160.7286345875238 2276.412938599489 501.5028743455411
-149.84100266135363 2170.942068857428 478.2672199357091
-99.97077961814813 1482.4516691523056 326.5900314270834
-88.48889384817822 1343.7770070840397 296.03944877711905
-122.25057715590609 2001.01677871744 440.8319989420908
-112.39406350535235 1888.7098340846896 416.0903298945845
-81.45499646026755 1406.2782632274834 309.8087254644269
-88.79740982239109 1576.2035533674712 347.2439464580452
-97.06152795102189 1881.8737591940005 414.5843152569102
-93.9780125150084 1879.920594939518 414.15402536043183
-82.62819552168709 1707.0655584178064 376.073369522096
-80.69652178315857 1723.6674545809087 379.73083364216217
-80.12871372117858 1905.311730247792 419.74779401465065
-81.05642785601486 2002.9699429719226 441.2622888385692
-68.0426054575879 1750.035172016424 385.5397472446202
-62.16872465749694 1667.0256912009127 367.2524266442894
-26.45524981357654 775.4062090295986 170.82508890191318
-68.5243796062689 2106.4876484595015 464.06765335192284
-63.15502273609177 2041.0566459343338 449.6529418198974
-50.48255735991205 1719.7611260719434 378.8702538492054
-46.36867312185012 1669.9554375826367 367.89786148900697
-46.67895826209718 2029.337660407438 447.0712024410272
-42.78670404333604 1998.0870323357162 440.18656409737326
-34.25010169538495 1727.5737830898738 380.5914134351189
-29.048343013285784 1592.8054495305732 350.9014105781113
-15.901267132196773 955.0973204419993 210.4117593779233
-27.102376914275375 2011.7591821170945 443.19859337272186
-22.444474074856817 1888.7098340846896 416.0903298945845
-16.739737313926604 1626.0092418567779 358.2163388182436
-14.318310095003216 1644.5643022743627 362.30409283478815
-7.754608716871821 1967.8129863912357 433.5170707019585
-4.584901322182401 1949.2579259736508 429.429316685414
-1.2929448267107484 1693.3934086364281 373.0613402467474
1.3609298244701196 1649.4472129105693 363.3798175759841
11.149207688016135 1994.180703826751 439.3259843044165
15.165481831124424 2112.347141222949 465.35852304135796
14.042787078293676 1601.5946886757451 352.837715112264
15.970023409080158 1542.0231789140253 339.7138732696737
31.588448188492222 2088.9091701691577 460.1950442836175
35.60821983702279 2130.9022016405343 469.4462770579025
27.9848132147634 1529.3276112598883 336.9169889425643
