# .PCD v.7 - Point Cloud Data file format
VERSION .7
FIELDS x y z
SIZE 4 4 4
TYPE F F F
WIDTH 858
HEIGHT 1
VIEWPOINT 0 0 0 1 0 0 0
POINTS 858
DATA ascii
-2.8013344578364987 402.829787015397 11.711647754686313
5.249395197040575 449.9257202221532 8.175957593869349
8.850383260035825 421.1352799682559 27.00140674221888
24.96199096532154 369.9648746793452 5.098186294793227
32.38807732473006 420.7968669522952 31.843315831307315
38.404513857367995 402.9649513625012 5.314882258059429
40.5686426918936 387.93760654977336 6.957975598783076
43.24821605892733 379.6295140990611 16.77593588777544
65.21708922712814 492.1519825920142 28.903737314572354
-1239.9984616439947 2969.950423121522 1547.641910843814
-899.1163643658306 -813.9921652488529 3186.6813073970047
-79.09264819035741 -312.45623356205004 486.2664928906963
-46.05123537367206 126.40847192756823 402.62252572966804
-39.248408606539144 344.77381794205155 188.62665363532565
-9.944908620741659 386.22595390482775 46.37361890456563
-6.519844703487634 400.55436635421495 18.89972472215753
1.2210101155356996 517.8730354510874 11.46818000716422
4.852774226597509 409.0825531521579 75.54776440446074
8.430933816432232 401.98941556808165 2.9171512185970476
35.9268032859249 376.9273180759076 7.4024920198269175
39.209384045000256 374.24710441150563 23.750891343349593
-1472.0664412505175 3372.077072616508 1749.7134669236796
-1443.9498378684705 1663.674825246883 3428.6888275023957
-1030.1673473505664 -1914.3744319956127 2729.601900300019
-38.549327537211475 -233.58194140846874 307.30355781840643
-12.220221904150417 204.41111335866162 432.08806594891325
1.1196521329719253 443.79761946940266 169.3182593617454
5.307721810341025 454.3530609730735 24.254813633556285
8.556768649513309 406.9500911944858 29.251038901202968
19.429874048682713 287.98264419764877 3.1617465000261857
30.85309735673338 392.43182598018 87.18521639510736
40.11985194529014 420.72238682024306 15.286373941446872
39.732175832266925 379.9675999099778 4.962158668465386
42.56534948957585 373.3695499221639 21.70666236252683
-44.95997387192627 366.0310117433683 189.11715533532688
-39.548014779108144 394.6565257703429 32.591819017701816
-14.57543264942648 417.7801475215159 13.555380367235738
-6.828765026096774 419.9868158563249 3.327838166956094
-2.9612121067949095 425.9704684106323 5.0159786708582645
4.817778258617238 412.8980647528178 9.175408621848666
29.394866387136528 382.9999316711159 0.22877919610292857
35.54561704416442 372.4805936433382 19.67758519499797
27.394289652773512 261.3373179242031 18.622735035004983
1846.2492318723012 3682.672283792038 999.8904190909808
-1674.311768343565 3077.6062614849266 1583.3068872675237
-53.62347672393741 -28.15533861519361 452.12418305976934
-45.50560462279916 299.2582027389796 290.4023555232219
-13.947782439642564 392.1109383669508 79.0506926787444
-3.5937715004999253 516.6484886734956 19.061457221128126
1.0512944238010078 438.75580450645384 80.0583787738328
28.32038040953885 368.634163334537 16.42722200026231
34.66868205942003 401.77932547361536 31.342840043088422
27.4454094067543 287.94238351272685 5.760536173806901
43.39171834313362 405.1160819576265 90.03310579615506
46.66254890568476 409.95878400562356 5.8133825463732585
51.067397982503266 414.99319349810065 2.3768361845109007
63.232796451454874 477.99776304506196 1.462369281944757
1510.7534955455515 3789.6654930207987 430.1528228518601
-1585.5382909858806 3250.359101461069 1665.0134268375116
-53.97859908634759 108.0900432204722 443.0039983528325
-45.942109223497475 362.6898240712947 213.7687804969035
-41.54538926290149 414.38196821891654 36.654937116531066
-18.120528993716672 199.99960296845387 0.39851281136092853
-13.738565703047925 367.02618369755356 143.2751914338616
-11.581088959372677 451.52722293584463 36.498862281502326
-3.8509659792591076 552.7635585952727 36.99254369586692
1.053651586186212 433.8120211852482 107.77815305139426
32.948151932401665 382.75315883047125 13.748432830546783
35.54561704416442 372.4720839624478 19.838010703475998
30.844715448733535 294.2535388760754 20.97271701296624
47.0039821903605 404.1261766805795 85.15299948643663
51.559613866671974 418.946989660793 6.664822140115855
-46.16036152384663 376.8151812095736 192.1960436897602
-41.04604564195315 410.1697239069911 26.111254088278855
-18.029926348748088 198.99714227785765 1.066473274898753
-10.747040443228896 187.1110756706322 73.41965241935537
-14.401085368930948 381.25001035610956 158.79996726531894
-6.747470204357526 414.353309187363 23.15891114628648
34.66868205942003 402.99923964307465 0.7828455171315745
33.87690781488022 323.94824538448404 5.7908818252584995
47.57303766482007 412.9342050499891 64.87944435438357
-69.65079226451888 453.82831375784787 230.47963387620257
-41.68618936668892 381.04191991541154 27.03803371506736
-18.029926348748088 198.68585373770287 11.177277151442064
-13.70369624694882 365.765997617945 143.75059995196355
-12.194656586359308 475.36351494705343 39.47820483738457
-6.015816808704301 367.8272556548142 40.03885609564714
-2.9403585004090296 421.67199655470006 33.492197920904424
27.61450853864474 320.9652423345695 4.7236863900010935
31.066678703478825 321.78136254706874 52.275756497174605
34.29514124469355 323.83007120205383 52.13525664339598
46.77636000057667 406.0058728232357 63.87668771189215
-30.859435774607114 275.75055898005627 139.43682878704078
-9.996039256323877 379.7964112644297 92.9283917361113
26.206554121032752 274.53165274147835 16.042806582152497
36.5954251086669 339.79347794425513 83.90704586950373
53.03626151917809 427.46366512128924 55.09823047135253
-84.71090939455394 518.0460556101438 260.82232317570475
-69.78763075619771 501.49148463725834 92.77009667084816
-46.269487674021214 418.9803576261222 65.04967273927458
-38.649196261401144 386.9805793971302 3.877005218129859
-16.42840050696602 201.78788045033792 9.254798936775092
-17.579888095581193 371.2022521141562 143.57189148777852
-13.70369624694882 391.9426767231795 28.808647366185696
-9.996039256323877 390.72990641095316 14.530665369754612
34.15252302131452 396.6936442496878 15.593351528844835
36.4032860881255 381.8407134779309 11.030391228996326
32.935882597800216 314.52709402995214 17.25419140596395
45.52443795676562 394.0781032630282 68.57440140908339
-1905.9651713228538 3492.726557608548 1750.8598441268625
-1659.4309786460828 2202.7675254257133 2824.6308128549963
-68.14471977009374 -533.9107972094763 9.760154872822495
-45.72385692314832 -34.44236769395379 417.5819959093477
-37.85024646788381 269.07517113397284 266.90738520922054
-18.2866172652528 400.9637370107665 103.07318566126133
-17.3998585934541 498.88545842866256 10.69108827122684
-8.641077413395065 334.23089580947044 50.33595421166568
24.34550129730985 280.3135387906558 38.90141347894074
34.190582887240225 318.23910303465635 75.18559236780253
43.93108262827882 380.70610772568466 63.70917940422224
46.514401053942734 377.39077147030486 21.452403339675847
45.81265585901931 256.4970979926185 16.069807757564007
78.33773152714575 402.4558031619812 112.93062694081111
-1081.3371390551042 3322.1961187067136 1658.1260352729664
-61.2536806922191 171.19965156619986 448.43135405947226
-63.4485287506191 488.8807883748113 219.7534408331823
-14.178753966536592 318.20676533140323 42.254638766947856
28.77956125291597 297.85533273544854 49.861816664209556
34.29514124469355 321.37129216189356 65.60863185736194
47.459226569928155 411.651052838073 66.57635238811181
52.05182975084068 422.9983727492892 1.173307910729948
48.164586130326455 256.9627287147751 4.376762668561067
-87.63197523574546 537.3151144278281 267.00649394239457
-69.51395377284007 496.13527158426126 109.15031969724748
-52.48967823397218 475.9746261737198 69.34807307191512
-37.45077157112514 372.7544000518722 40.977521178919915
-17.31486465695434 391.0217768057597 27.676164179066248
34.29514124469355 327.7534102501164 12.716212856777547
37.33003912454781 324.35588626806634 48.75714351002539
77.58808816324962 409.02829594318 63.967594278809344
-1114.6539456750218 3328.860119259479 1646.962751978249
-68.55608433108834 184.12126111650775 465.9402978975598
42.764368198413614 376.731753629745 159.22997772736474
43.70346043849499 383.2207112743137 24.45171671701356
52.17488372188286 423.4181633455007 22.204930738979776
65.40638349993749 348.94493813428966 6.1992056311080335
-67.63427243099193 475.44874963933694 234.1975372765288
-42.01356781721265 382.73296943416597 41.71898977810709
34.504257959600224 329.53232426220217 17.5626668348183
44.27251591295456 384.85584945820773 56.63016102574085
46.88356296706927 380.53256389646714 18.867109327641494
77.21326648130156 411.3288720729106 23.506573532250975
-88.80040157222206 545.8885291954256 267.7119976632631
-61.2536806922191 467.1935686501363 110.13704831686016
-48.53619995617818 483.8468445263269 45.69716667274358
-36.059852697496176 394.9818007671068 48.922153088079924
13.338633015909249 336.8289005433527 10.737399999824394
28.12619815494685 266.6113655821279 35.768418226599564
43.58964934360308 370.5264123857004 96.94935649390307
50.20602018520803 406.86675918744794 30.38816000193599
-1668.0305805842547 3294.304640487826 1608.4504765955262
-53.9291110624202 167.8228986559651 513.2596562040598
-37.328289727056344 374.7794731048112 171.12669733060392
4.89943551723787 419.0540929568181 28.172099249761658
40.35952597698693 385.9801287313451 3.9166598696193704
43.70346043849499 383.5654581676424 18.26305835961064
52.667099606051565 427.4260836299434 22.157234321291785
72.15317377500267 384.88200348244754 9.531180164976323
-1442.2298747918996 3347.4718689159718 1627.1804100394684
-42.14460160803949 167.75291747319702 387.22468759007444
-34.42900508806168 345.6511072004019 157.8775224379211
8.284126511170973 392.2548073711895 46.488343637852175
18.036643538049898 368.752519261738 13.512199603379871
43.24821605892733 378.8550886591435 29.475783230857786
63.638591990933435 356.3573029409237 21.411974235709884
1036.3241196613956 3595.2089702812914 358.1081680287903
-46.938300369143505 423.06398851141773 204.73607797555118
-38.234316176742176 421.93797387845666 7.235067335057311
14.957235431496036 493.9430821674067 7.498771830273517
28.43987322730685 269.3062803843805 38.18543368261544
41.88248292022437 356.44913792899257 91.47683897948173
51.80572180875633 418.9336069115495 41.660928939227425
67.59824055793607 510.9747727812182 5.077556615385368
64.93149549486206 378.42688393870895 65.1850712390414
59.53862668059318 333.38364463932066 20.281653951370348
60.346290793638595 318.87751885292374 44.73396886263585
-48.33646250779885 436.03320660217673 210.07389828396933
-33.79478657328159 372.70489589707296 14.834438794642795
-34.23938917540938 419.9468385323351 29.759919467244686
10.570125978810559 503.96547405569413 5.899233833261203
15.229735672150822 496.7072481444258 79.3152547798456
22.289185510435647 451.16996429251554 66.19413357911917
42.906782774251596 376.1742184142382 24.939073768626095
48.11410267749103 390.1820934783411 25.277142418776567
65.77695767578474 388.68503141479385 15.65076209264993
55.84843061026181 297.7263696009227 12.767491697854402
1278.7615244845445 3423.230698438353 699.6624795351439
-1693.773873969684 3183.7304573779174 1527.030246839988
-52.63081764795453 64.6725897659647 523.0166881973875
-30.986240560168586 312.6422400634278 217.7517617107196
6.310939559108779 532.6826426388409 94.49974725522262
12.038199031423137 561.5726138142069 118.79477856319984
33.56323274252022 310.30269866941626 82.17807005812104
43.47583824871116 375.8515193512338 68.26152211435907
51.68266783771415 419.106071462771 27.387969312138825
52.92593252575996 312.9835973608361 3.2043381641197106
68.96718947844411 362.38058506434896 64.06490122071642
-33.67008816774224 373.59552021498286 178.38830476041957
0.9357934669260092 396.05002044873265 27.44779230755107
4.269508093593 365.8352824971875 10.979347895163048
12.37375858630601 587.9817366217638 48.75938267917997
47.914470949495815 401.5719286380104 126.41592514374402
52.05182975084068 422.91228547781293 8.613872063878626
63.91694087775484 377.9461437155259 6.3806308906735705
59.97146911169053 319.393063442633 19.699518388281426
-55.52701064945487 502.1543510506506 238.69857083966792
-36.059852697496176 393.2172602560289 61.51573974798974
-30.335610837120424 372.77225443630243 13.032510213946146
0.9617222531632538 406.98274677093826 28.79312124071244
5.64601616748364 483.9711346648518 5.285906848963347
10.5281810344502 498.17972819483845 61.813901476260874
38.24052788368312 332.3145796647727 49.62882370382601
69.49699127184455 406.9072263026864 57.85766312818351
71.59094125208057 381.9766646424842 4.222282392636356
-1509.5210653604406 3236.877452026587 1531.7262681569023
-55.427141925265204 118.83479463864904 542.1284825419064
1.2516532265433524 462.4299256249198 260.99724881027214
6.485919399010132 553.9522375224768 47.675135488443395
14.503068363738059 464.6273074307939 116.45799753391996
15.080175605523513 379.4686832751947 34.12504085550601
23.364540951728593 477.16989903787004 28.15825726476945
40.35952597698693 383.5997016785053 42.97986589278419
51.68266783771415 419.43810979093325 21.718012225086625
59.68962997314143 352.9793476267186 3.8183961313834036
59.034414906820366 313.2593675499556 33.06914940245409
-54.827929580127204 496.6519665233449 233.96115948698463
-43.94228280976293 479.869581624685 70.35754850298436
1.105509158660701 465.83234262397895 54.417171604705125
8.409961344252052 399.3118771988119 36.75628827780307
18.52544146591033 378.8880182590429 9.212470881105016
31.52567328506019 276.50227907745386 16.59788133991251
1270.3114830676182 3150.1129832979504 766.3890607633225
-57.12491023648955 517.8835375244685 242.85930404483676
-37.00456549836406 447.43252785542205 82.63856857973126
-28.67500011279545 397.29151052349596 23.737221108607145
1.0795803724234565 457.8225735763281 12.747200631810928
4.864439549257599 415.7382716893361 32.414340233356
31.411862190168275 275.99737696635214 1.2032903611884251
50.69823606937674 400.23682845906313 97.74702627205835
66.01080633739745 498.8714932050771 11.32401286367621
61.71873920735587 360.93113830457077 54.34807634283675
-1486.38377635319 3400.7075826240302 1587.512814903686
-1043.6137924666482 1536.5991013169287 2801.229765983506
-55.127535752696204 -209.77957167049706 510.58449967634425
-44.21409074466868 226.8279234733292 432.07996150339756
-34.3207178907904 399.86128589833027 134.88866534936798
-35.66363079355213 494.86505424427116 11.557598704511971
0.9876510394004984 414.7552925469419 59.48989245494243
4.456153256154443 381.99866462955924 1.0100600148147671
8.766493371315105 417.37875733016904 22.780977361032825
15.23849765912481 384.98995712744926 2.7808112134393737
18.818720222626588 384.5321083346349 18.975185367225894
38.12671678879121 334.5795728699294 16.77824240424478
47.99104870644886 386.3303626403881 53.37462788766061
76.91712358717469 480.46958505332134 22.58268891627508
70.00426858039816 411.15328776401253 48.466214632907885
-1178.5159822283777 3271.97736962123 1520.4696947609764
-36.42226327737051 109.95416603406493 386.67050750186945
-28.386809156887956 340.0785279630508 198.95375045091367
-23.786237048399617 375.9143806686672 48.263634410313166
0.9357934669260092 396.15786259274313 25.844688157322818
4.456153256154443 381.8302318422049 11.387451485211514
11.891391726161878 566.1482009953954 31.067901597587934
14.07917910049728 448.53891976495856 122.62886061643093
18.672080844268457 381.2752872896827 23.519253860825152
42.451538394683936 372.4196753434006 20.798687870057474
68.39195766820538 515.688431049927 36.80274556693718
1426.9826709848364 3748.272375550199 677.4475615774764
-1282.4474668161417 3298.2237432326956 1525.6723565615607
-35.24442889277893 123.42084328887373 368.90147118419475
-35.80772627150587 434.7618929419766 240.8134058675083
-17.31486465695434 391.7234917649167 14.720937453208046
-13.668826790849714 391.72361404944996 14.717683106982669
-2.856944074865511 410.71022108503047 15.430952539794895
0.9075075183035606 384.99624632092434 1.7000937615773652
4.93443148521814 422.4861556373468 20.843423297902312
39.49244992749417 346.9548208718662 5.599310115649167
49.09853444582844 396.3328333437812 46.057412147129284
66.53995107757699 502.78101270282 14.840932097639108
61.71873920735587 360.55190036412614 56.80956912191139
-1425.1158414405327 3133.7482775249136 1442.9559013045537
-41.24578309033249 14.779415328077325 412.7354708315729
-35.60683947265326 301.7329654452551 251.8059124874007
-23.91175808823286 373.807407144426 73.68189983952188
-2.398164734376159 344.18324847892904 23.725333854168888
1.1196521329719253 471.5540516748546 57.111963274156224
12.038199031423137 571.0296782494955 58.319006835487095
17.21752332914102 418.6083412087373 118.28802420562013
18.52544146591033 378.98336623904845 3.550790632982999
74.96433638961317 399.28525250870683 23.901613524158407
77.32977435273925 375.88847954787593 9.157016063437949
1312.8347967387701 3272.034758552387 213.61071795446762
-45.06910002210085 375.4423709395347 172.08145194442318
-41.34565181452216 413.09945822266565 27.29171332364739
-32.97936276856434 363.99998900069346 0.08948460780689142
-34.48337532155244 422.4351775372729 36.393966245144675
-16.343112048655886 369.95235603744726 5.937529986609056
0.9947225265561106 420.7961711024095 31.8525098783706
4.4211572881741725 378.9670446964413 4.997902964788436
36.30573927052058 318.42944575067935 19.070607722753476
67.16256113641033 414.26281260969955 69.18325005881789
56.8150585580043 335.99946495445596 0.5996251490046117
-1469.528360066804 3697.3754184167815 1686.8642551454252
-75.29098251751931 502.5917765503261 309.0331796813849
-43.65046006983133 395.14591093529236 62.12655689089832
-29.261536187572442 292.8539018534948 9.251603600654223
-37.69070030693068 406.8509784915595 86.76566890458811
-13.773435159147033 394.9754399923031 4.404747766510934
3.872887123149935 331.8313216562807 10.581775269111786
8.892328204396184 419.7272786031373 60.041748778698846
48.85242650374409 396.9745555021935 4.494695077078909
59.35144510077235 350.8585668416277 9.963236112783461
-1270.7299851783189 3124.8714001234816 1419.0851745720947
-75.29098251751931 11.976223259126593 589.8784366939069
-51.13762018706614 330.31775317709565 278.41368848538195
-36.15247815665947 358.2153954057141 52.208528942385186
-35.78804476259043 393.179851557298 37.87617099683005
-14.540563193327372 416.7444368464064 14.59706674546511
0.9004360311479485 381.99285592833 2.336240509474985
4.374495997533812 374.4424578525541 20.44127582462093
32.54997313908741 285.34454898862964 19.35170179791765
48.975480474786266 388.12547826260055 88.10569291156834
47.22616806102383 356.6570869253719 15.643603993572135
66.84273941671313 415.9633170562081 41.21309092505074
-44.982165905289655 346.2676270125955 156.5207030493604
-34.79141566793601 381.3796648175015 44.783381557115675
-36.312060444343984 503.2209729104165 28.011647989610932
-17.094011791431967 382.237431046111 60.52723607822798
-13.773435159147033 394.4218773523187 21.363114610760114
-2.6484080110067145 380.7945161566093 12.51145335497911
0.7849350742729498 332.4662107984153 18.847245882189014
3.8378911551696646 325.736034920183 46.22808188187491
44.29942957518356 355.80973491296714 54.76707533878421
48.68131609651756 366.1528792942027 36.82484194894844
65.72336339777296 409.61282216195036 33.73923414249963
-1503.1980226404164 3252.006939988759 1463.1496376874613
-60.48800968356636 113.68067063056287 460.1659538959673
-35.85287198409047 311.0409864670937 179.2609961413169
-34.06659450818734 370.0343623899952 66.71259739082052
-40.257714113604855 493.5932683924337 37.29189453051305
-37.6089197459277 516.8750806353124 72.96678023758015
31.639484379952105 273.464803306746 50.01001252152138
39.00810882036997 307.6137692787019 76.56872044215932
74.51846068944575 458.1036490151569 85.42275316915224
-885.630552078258 2775.4076759958903 1242.8971124043583
-60.10517417923999 -261.9008958053292 391.4702041999699
-43.79842469725572 141.50861871702983 341.8703128801889
-35.85287198409047 319.37728736649785 163.94861485970975
-35.24442889277893 383.79174870071085 63.442049377762146
-33.75141688312326 414.4519685754129 21.32054745931614
-36.8163946171821 510.9988573734518 1.0806308466264274
-26.42217888489773 414.88688650936956 71.48336451623904
-18.553348426867796 346.99856709795046 0.9972120983864772
-14.443777405163443 324.8170076174206 37.721500002843925
-10.123865845279425 391.2935736112856 60.87149785005676
48.60631856165974 394.7102598226173 15.126493009351698
83.31355798111852 520.7275555849102 16.846746112062828
-44.27192118046929 341.60216850901725 152.26279410918795
-45.72385692314832 415.7291429834455 52.25207818115883
-39.84762095167715 398.99623567044233 1.733182280324083
-37.781302951899264 416.87114329180315 10.365803904421565
-41.07100126741505 504.98986026234184 3.2001612803801964
-39.77035191523389 544.9377441511889 88.01622009273846
-24.91592640689881 386.55864389678857 90.45117372746375
-21.92182378967088 409.55551605654114 19.086101426437512
-18.330787838357274 414.99141780638513 2.6689224504032745
-12.866829300570265 368.99827664254263 1.1277565488982817
4.4911492241347135 383.85279805691926 29.698980182389928
33.46046189822273 293.61336375482153 15.072910288953686
51.31350592458762 407.94391266249363 86.43358214036823
50.26875031705618 379.98376445966755 3.512655271997094
63.48461135989262 396.33142882958094 23.0303825826412
-41.35881091616519 346.4378165361438 153.69397930195294
-37.950115192073476 377.42010707054504 44.20478230755492
-37.328289727056344 411.1951098025647 25.740661888474573
-33.18211587545612 407.9974006958899 1.4563740582204043
-24.100039647982726 383.98392325905985 3.5137840827869162
-19.408834233293977 362.5268722222686 18.52746385069889
-17.44737637626777 393.45373321499534 34.916469168335176
-13.285262773759543 380.77283156513215 13.154875213071863
-10.737433472266058 419.3258523915112 23.787171251171635
-2.4815791599196775 356.97986335467067 3.7917224688360136
40.60781044391826 328.41036986123765 32.35164551618787
55.295625348761796 413.42695065763075 61.66162882971028
-78.95580969867858 527.8340208257027 233.0670428416931
-52.70368776226351 404.7671888343062 82.05195209849144
-49.717130737425414 419.9540745743526 6.2108975518083955
-40.92230631546688 374.97425558962215 4.394046541485625
-41.944864159660156 419.06364611577277 28.029636175918647
-34.70081302296743 382.9802183214996 3.892605093828793
-33.34477330621816 409.4283263270838 21.64360415926419
-41.57154538965571 576.9872296867354 3.8388511857577283
-18.330787838357274 398.16701681068196 116.99584062727227
-12.72735147617384 364.873698361468 9.601262626574668
-10.149431163070535 395.5863278516895 33.47323134708746
-7.83682081566344 481.7712174478927 14.849041678683825
-2.5719447875918227 367.35648624564476 44.14988123713814
0.8768644072959079 370.8077843556542 29.75881484956481
38.24052788368312 335.0789921687109 24.86099368892931
50.94434401146109 410.15377007530276 56.301730817228396
49.73960557687664 375.994544230736 2.0255144336989463
72.73456559982245 512.9143526243762 33.38962221884303
85.35068179890104 408.7361490739496 71.83147249081043
-1815.6143055721477 3465.144510616795 1522.825833948943
-1629.083886424437 2101.7503337613766 2980.4789102649156
-53.852194275242624 -414.0358748058953 81.59837237173916
-45.69241063011002 48.86237491476314 382.89485282214116
-27.92843136289665 358.00347374206564 264.3076101602338
-18.92762346717925 352.3561990166518 34.0750497363933
-11.088487039515838 316.2062945442374 33.72801936970217
-9.970473938532768 384.4204508636391 65.73368206480167
-6.64991641827043 408.48270264650085 20.56408613603782
-2.53718877694869 364.9874167526974 3.0307774898149527
0.9051503559183565 382.6390379309704 32.301186530240784
38.24052788368312 335.5208849599227 17.93699405447596
47.99104870644886 386.4175303761285 52.73985417133588
-53.21413510136534 382.0532036191954 167.1058036224643
-40.58302897512893 498.2609594238479 27.148044386779855
-29.539572980517924 405.49431987055186 60.616470968859225
-26.54769992473097 422.9613443807702 5.71849277445715
-21.0663379832447 393.94329318031953 6.684441505825498
-15.768894598297704 356.7975432039813 12.021362801408051
-11.402312144407796 325.4146035809889 32.16109102981172
-9.970473938532768 385.4272006016256 59.54723365861968
-6.34099609566129 389.540587058933 18.924350286914798
-3.3435282238693693 480.58857136265107 19.89032618148939
0.8650785953698876 364.46753503219253 43.03970152728205
40.60781044391826 328.80510047407535 28.057189849185157
53.70819112822318 401.59940037282956 59.614776860974025
62.52514620080104 390.9193024093259 7.943488138468999
-1407.7434538202501 3331.0713561168864 1450.052626788975
-851.333035706552 1282.1298513573042 3208.2967512776145
-53.59697060569171 22.793954682335045 419.381014865885
-48.17826716698129 316.09877190592545 256.37973086725424
-42.544076504798156 419.891933740179 71.88020575883951
-13.633957334750606 390.97365175694176 4.5391223646900185
-9.791516713995 382.71081282299156 14.880650132475127
0.9075075183035606 384.4535856668122 20.504645033042145
51.591612167505026 389.50786692205077 19.58626063938739
66.52291769701594 415.6431867623245 17.226180599872176
86.79033185334032 421.9962889338335 1.7697813629114059
-1980.751356305612 3442.7900692006565 1491.5430062231999
-1541.2543628148621 1931.1283634094698 2978.7989599896573
-1169.87158846877 -2921.2148117602155 1567.0765850949115
-811.7238811204777 2746.1445588831707 1372.4394564848226
-52.95891143181443 -248.0700399647885 332.69543921110227
-36.95142795017681 149.71913328978815 338.355110980985
-33.18211587545612 365.60187587979334 181.1056828296014
-40.130590610118254 555.075824294135 46.258288816022095
-25.4807710861484 393.62338809216453 99.48179907322343
-15.592212305879803 352.7931198366659 12.083649941631366
-13.355001685957756 380.87052313323125 40.33168243724475
-10.047169891906098 392.37297982490145 22.19109513583004
-2.6692616173925945 383.7453510842762 13.98232889062443
0.8627214329846835 365.51515203673864 18.83278077076899
27.31466277405937 239.16789208083907 19.96795927500138
44.79164545935227 347.3297183604226 108.8947507626953
55.824770088941335 419.2108706037733 48.438063210934004
62.04541362125526 387.9789339837658 4.043115731799386
-2015.2645841133549 3404.0654398859438 1467.7150544210258
-2077.9890047450554 2004.0611417671826 3603.1747029611006
-23.723476528482998 -353.08710580911355 134.95738479736434
-18.981091330080886 82.07314951974058 345.3823940618721
-18.2866172652528 346.749572322554 226.18738712431758
-11.227964863912264 319.8342142306747 37.28371504352614
-10.200561798652755 393.7096301918843 64.75899238074747
-6.828765026096774 419.7560129354947 14.313965365921984
-2.905602489765897 417.97297170947996 4.753411442981611
45.776077227689676 371.9873095885699 3.072703216628649
63.324700500044024 394.9740092777971 28.48740063646777
66.62241985670742 393.7997901245271 12.558873272647045
-1577.289323973632 3338.6181177224576 1432.5913806858382
-24.727644847148945 151.01726487636464 363.90903493766393
-15.548041732775328 315.7744224122512 155.53300019677218
-13.250393317660436 374.5151329124032 64.33051546198735
0.8886502192219281 376.13922898631563 25.461351448421066
41.223080299129144 334.2979129326978 21.677301696530616
-26.798742004397457 392.6934795386362 167.69266867647704
-20.852466531638157 389.7492548288118 13.982788004754939
-14.331346456732735 410.65460912389227 16.846127308768324
-10.123865845279425 395.9959674798651 1.7871037142920165
51.19475361237037 386.8247345465449 11.645803664627621
53.60230227049811 316.66315717338506 14.6097532143441
-1734.9479965368507 3416.3053851909617 1451.8269577037183
-1136.4139790944982 1709.6718019309717 2924.9899708686357
-990.3514711035261 -1988.020700249213 2399.4227837921
-34.48337532155244 -211.1913347707561 367.66046852734445
-23.660716008566375 174.41085694121185 334.2302394772683
-18.286009112359615 312.7160816470734 138.46534685364762
-18.1099349728349 403.7058688134981 71.56515552654557
-14.191868632336309 406.94364923326384 6.77246991239617
-10.430649658772742 407.9753622270303 4.4837278824012
-5.836968200877957 358.98484329996813 3.2988302316621523
47.375778851237975 383.2751633680069 36.402598056013204
51.591612167505026 389.46675936473787 20.387333075451362
-75.28594083095848 585.7700661257456 247.72854020285902
-25.73181316581489 391.55186292843774 121.60237924181386
-15.203082859210395 435.68766807460645 16.500178414537128
-1.9810926066585661 284.7813021941251 11.1628813761686
42.576673980593085 337.3401575496576 76.92605608226764
52.120756907684566 390.5479975893891 52.04096058796876
70.75346848231756 499.6079011471989 19.797603675463627
-51.61666903257555 435.964354048151 183.4777425176646
-23.346913408983266 371.7074622578448 14.750000062131512
-21.0663379832447 392.9653004682781 28.535462636444752
-17.579888095581193 397.75083632538355 14.080916250654088
-5.853227165225806 359.86845503080355 9.73113938562853
53.940487142867184 317.6169878532554 29.672361332138998
68.20149052656646 342.17859516038124 57.6438115851816
-1432.8014803574804 3135.156533815246 1313.009713778071
-27.112544603980567 16.520412377833335 431.68400013767746
-19.141494918785796 275.5568012912648 228.54419542426893
-16.696476633491688 367.1385072656286 89.96286168617566
-14.95899666651665 427.6120188499775 34.481318638452336
68.0648366799895 480.84869136139343 12.063830902139577
76.84951814376797 388.2810666091256 46.0305693303892
-51.50754288240097 435.6791058925341 181.57014261348715
-37.85024646788381 378.7093920801713 14.839014464144363
-33.16056805850151 365.33550659897963 22.044673235656724
-30.4041458482404 420.52584773027735 35.24218198028599
-26.233897325147865 417.966207671983 5.315001815688009
-16.07808861002903 363.9876179698913 3.0023265319538064
37.285353225779495 301.88118081655256 26.01447037331143
-42.044732883849825 388.88567566284695 161.2728472628018
-30.476193587217274 422.6179123281902 17.974987603949593
-25.73181316581489 409.9450860976664 6.710170219667618
-22.40303455578561 418.9930704019458 2.4097624675681915
-9.612559489457233 375.9810477335645 3.7751483641187242
33.2328397084389 291.3828040094076 18.97528728676175
51.45932598246014 380.235215165492 82.11078582045108
70.04593379749438 494.1789457122475 28.49858969723846
78.02879463702271 393.0453810757867 55.895692275788576
-69.95910539480576 546.3121981991688 225.44174879288013
-34.06659450818734 365.9044007707809 86.54460986436838
-34.51086696992216 477.36621575040124 39.52842091636561
-26.359418364981106 417.3722282787467 46.908667233612206
-13.773435159147033 394.98972875934567 2.8485390323042887
41.9614041253822 340.8270199930568 10.86013087639533
55.42791153380668 415.6580712669017 52.814465733161086
68.9138783017773 486.9956641021513 2.055029368312512
71.83852261161394 399.66560485475856 51.73397622530072
71.2161195701325 379.8933529168404 9.002244697905196
83.3355388566691 423.2820726790183 24.663473975786385
-863.5638497646067 3127.5956861370973 1284.2531775536397
-39.548014779108144 9.920684078588124 395.8757128536845
-38.32491882171076 322.4560281303257 273.7720035401988
-23.597955488649752 371.2899542189513 59.327648664758506
-11.576659424903328 331.1105118883857 24.286393660056053
-10.737433472266058 415.69243535461277 59.998326551255246
-4.763876553919892 292.9973166569477 1.2539664382758466
50.26875031705618 371.66254762710366 79.16407449930125
69.33839911267121 488.7104074818985 35.52657623352871
91.18283385479755 599.7591480255359 79.46045783711101
75.22545047667762 399.836218748124 134.96295112808676
71.2161195701325 379.8960167391552 8.889120638372557
77.43915639039534 393.3329759725573 22.916588152944513
-78.09844288257935 566.535761021862 231.47620068460546
-31.35877939555545 302.82826393255755 83.01230368802733
-34.88201831290459 377.8735373437789 73.7332338589575
-26.045615765397997 414.2096383557872 25.6003025991485
-19.03455919298252 355.99949053499415 0.6022780293155292
-15.857235744506655 357.20993145704597 35.80593342523746
-13.738565703047925 392.1175563669971 38.46845446303794
-10.379519023190522 405.724131096512 14.96427231710123
55.824770088941335 421.9636900666109 5.535726272959277
68.76166973489629 429.9501627396414 6.546568578719155
71.48200388897565 400.829476808524 11.693182689281482
81.56662411678697 414.9026450816019 8.988609697292661
-1295.0460629321524 3166.3352297431998 1287.262682162067
-85.25038031590425 57.64964143078737 620.3269451207981
-41.34565181452216 336.79580215202066 240.75835946603596
-14.355436258954493 322.11160645587 43.23323936994227
-11.36744268830869 321.88531084712594 51.63183766678379
-9.919343302950548 383.07846186107895 61.602695218227886
33.80189518289847 296.5885691446386 15.62756067772339
51.559613866671974 410.34592726559356 84.71847482420952
56.61848719921064 427.994538898991 2.1620991281877107
70.00426858039816 413.86274316611537 10.659728843549983
86.02157600708111 458.99972915579497 0.49863303827895483
76.25987989714059 386.7632367543833 30.954784691107932
-1409.0058362764223 3162.0879166359464 1279.1094587504779
-57.411448589646014 41.29867707445669 483.2384703972768
-42.23182011756181 308.28091118683534 233.94845542942684
-30.26022342946911 297.9301488541129 55.196253530164014
-34.338402443093095 371.35050493754443 75.76148416333184
-14.226738088435415 406.91004600153025 29.802927088333558
-9.84264734957722 384.9765023181696 4.253547092526424
-6.243442309574194 383.5328790936543 18.934905706983752
21.120788205573472 201.7285379823894 10.468856837671664
51.45932598246014 362.79369560036855 140.36286700059645
80.58389370574135 408.41184783474034 36.052219740438964
-77.9708310478039 566.8123163722486 228.13329000548356
-57.29307446884262 466.71805595300293 128.18056111380386
-45.39647847262459 414.18928995396016 38.771537078562275
-30.160354705279445 301.9995857681342 0.5001958370129894
-28.67500011279545 390.52225255143964 76.7878262626935
-15.81306517140218 357.7186199231637 14.191157819824468
-8.615512095603956 335.41896982460594 32.60543945111169
21.120788205573472 200.1396023427175 27.35214021057424
56.75077338425553 399.6681390490284 155.90503080108263
67.78182280606022 478.86561873081547 11.345448318742065
72.0333778146126 423.20872782837233 48.68647337701373
69.71683284234024 371.9436999234009 6.471791660052436
-77.9708310478039 567.2096205701929 227.14366892479697
-51.96623903268989 423.24412667751443 116.55646371174842
-44.95997387192627 411.9372025270787 7.193133820841211
-38.149852640452806 381.9990120158997 0.8688031287396497
-23.09587132931678 367.45308081425566 20.055757280943
-9.893777985159439 385.76492497974135 30.89373165181795
-6.828765026096774 419.51718755783037 20.132792741400756
54.50190823849249 411.97527680466607 4.513457845016671
67.64031586909559 477.99883491417023 1.055377039669663
85.30493216828994 562.3886244303974 63.83600168623886
69.90424368331428 360.4334387432229 96.00383448454238
-41.68618936668892 354.86937026942644 141.392114506364
-41.645257987091156 414.83788621721766 42.40905750934331
-35.69744211762185 393.99846840982053 1.0985857798335874
-25.35525004631516 403.7721974073521 13.565124431359749
-14.399606832058968 325.95548980465367 5.38689764227502
-13.878043527444351 393.3905914730006 60.39737196702137
-6.308478166965592 387.7671791687069 13.43929907189995
54.36962205344761 410.5938749692937 18.266631810489166
81.3664887546652 574.9938664055362 2.6558606914500027
-38.049983916263145 354.18598343699483 140.40402108475678
-34.70081302296743 380.96744415044486 39.405665804268615
-27.23404533325799 377.40051704267137 21.28026634993857
-15.516907964102353 444.1296895888015 27.817599209039997
-10.456214976563851 408.4057609885511 22.03938273551349
-5.625601664355914 345.98768283896726 2.9194731925823016
46.268293111858384 373.4127854879058 44.03284721844856
49.871891761921525 376.0895462531766 26.184980410146103
-41.90444166703808 357.22128640172843 140.8863106958739
-41.04604564195315 409.03712936603347 40.12015453602829
-28.17066593995734 390.9894790212175 2.868326117598834
-8.743338684559504 341.74213712275605 13.27824215667838
-6.275960238269892 382.9985002114651 48.043197601412565
-2.53718877694869 364.4916856174699 19.25645646881788
49.83685827208151 403.5349834520966 34.416814645114236
68.4418480151991 427.93859854823637 7.249542921548884
-948.245010709243 3031.019177609238 1189.3101971163871
-56.346081502415466 -68.07320273683462 471.1072479480122
-42.23182011756181 258.29354383385805 288.18994641338
-41.944864159660156 404.7352164326413 112.20251592198356
-30.476193587217274 422.953396818698 6.278862916559764
-12.62274310787652 361.94798396555376 6.136522082683112
-10.379519023190522 404.37420591655774 36.2974047192549
-6.243442309574194 383.9540259060243 5.941884428025305
-2.53718877694869 364.52329285830007 18.648564656348075
47.867994735406675 387.5946836576991 33.03575639043555
-85.11354182422544 579.4171269381585 226.1853067967278
-53.7418508447408 435.0384019369442 129.83677768702435
-39.548014779108144 395.713447364341 15.062123855185407
-39.41215056133376 434.7964886605809 13.304640108973143
-30.764384543124766 426.69783452522495 16.061071305605576
-10.5840415655194 413.8858080938169 9.723058085200915
-7.105167420010215 436.99972267252974 0.4923252300055142
-2.7457248408074864 394.6604287482878 16.37516351727929
53.046760202998755 400.7891774645465 13.001354825256792
-62.65741087474912 457.6964741562043 177.74964850873553
-44.85084772175169 409.76344739378476 31.85776482995983
-40.54670202100482 405.9925247609233 2.463704172801683
-31.555541567835725 387.9689571498517 4.907982075818656
-30.548241326194145 423.5876393151032 18.695235207347938
-8.30872828211064 324.9470028345984 5.869016000277145
-6.406031953052688 389.33107446618203 60.47573443132546
47.12967090915362 382.6665797619542 15.977757454910327
85.30493216828994 565.1943710904628 30.188124944358666
-1779.6614701858944 3374.879305352249 1303.8840724179124
-1287.741003415548 1608.9916077352652 3275.110228104924
-42.01356781721265 -190.0222928987341 334.83806265343804
-36.95142795017681 183.1723828684217 321.47764798552373
-30.416939552501447 344.251487290206 146.17425730435966
-5.495529949573118 335.5527734902892 40.59970693212745
-2.91950489402315 416.14511622510685 56.77360515232717
49.342747021741985 372.99520635056746 1.8910419079456575
-43.324928214042146 341.6353932496309 131.3059712243508
-47.14249687541784 428.6307838343913 53.848408978495556
-39.44814605491848 394.85750501808246 10.60899292557808
-39.11911209827058 480.7524538182845 15.42978119411521
-10.762998790057168 418.0807716920788 49.49210382834671
53.046760202998755 400.9856899984308 3.3876860070467467
-48.53338952939147 382.96245472036037 146.42321630996878
-39.74775222748748 397.44440666431103 21.02245492928328
-27.378140811211736 379.85559910235565 10.474914347642207
-5.706896486095161 350.4043319845678 20.440257494679244
53.575904943178294 402.56689291188263 44.32715568669877
-48.77013777099826 385.086781335641 146.46559609872975
-39.248408606539144 392.52565355559193 19.303142250820567
-39.200440813651596 481.68502213130586 17.422383716453453
-2.627554404620835 375.30611042580125 45.04801302006856
39.8694866176652 323.2901395096658 21.435617458352787
52.91447401795387 395.08077646031234 62.539428135510796
-1929.0775127460656 3392.317477266026 1283.4761912226757
-68.69292282276716 234.96051464804682 443.61870627412117
-34.37473730499217 299.8736988161016 96.44047261575393
-40.24709584843582 395.13709901883374 79.21914528054683
-34.15806046002836 419.79037202541093 13.268140591925071
-2.690115223778474 386.9747115921318 4.424091792264101
48.975480474786266 397.5818747143272 18.238774592637476
-81.41890254889732 556.8675700954318 209.57936295353457
-77.20516003915115 586.0905697209677 150.07612762911873
-43.977838520355064 384.79990980863784 119.74151081084705
-41.944864159660156 419.4826834957753 20.8393437320665
-33.34477330621816 409.97566656205004 4.466858739961205
-5.73941441479086 352.9942697917423 2.0113413918681844
-2.794383255707872 399.77972043574977 42.19212163797608
36.42397542848426 295.91831829553666 6.953337122666462
53.046760202998755 392.6225856703327 81.53836656165164
-70.47182321459181 482.310489031304 180.55910990693445
-48.888511891801656 410.00270204099974 49.666732518650754
-47.251623025592416 432.9930870943414 2.4467383415623063
-40.04735840005648 400.7617228925098 13.82177500276921
-31.230226706311644 383.90893116289845 8.362569782123963
35.31648968910467 286.6240095488907 14.68595077335523
-37.99809277788942 300.8205621102108 112.01780845783763
-48.45201067751278 435.4807924337387 86.55910940671095
-32.368828721645926 397.70019312004456 15.445270871022469
48.85242650374409 396.85398505274156 10.766361862690314
51.45932598246014 388.8409227813186 11.123703096207345
98.58089029558485 582.4714506004728 24.81953334333451
-76.82232453482479 564.5214900292341 209.09205459599224
-45.50560462279916 402.5487284982838 108.82794303125917
-32.450157437026945 398.93053450636387 7.445041199807428
35.07038174702032 284.91111820681704 7.117213088079639
86.17772461146279 593.788338432357 135.26421973951832
99.42635247650753 559.0471803999984 182.23679674207315
-51.847864911886504 410.9964738447088 151.4130063343819
-43.432207769482176 397.996947958383 1.5586583372253893
-36.25234688084913 362.8715401497915 9.656363151739104
-33.67008816774224 412.40129586054985 36.34791840723809
48.85242650374409 396.9995743465418 0.5813507242797105
-50.19062722063899 398.1148128520032 145.87870231056516
-39.44814605491848 394.86236906368214 10.42638467621852
-31.148897990930625 382.80299371008056 12.282833817977162
41.996294015116284 368.4794508387785 19.593221010140415
43.684159719972676 353.9172477973516 27.705265051033418
52.38532927777433 393.87930080847383 40.92794149023115
99.08816760413846 585.6654684228944 19.797956889328173
-83.74515690743725 575.0040410098019 209.55751674038834
-38.471589261103 312.13281188275283 90.54340255460926
-38.19415256110241 344.56459089108495 61.44300370310065
-43.34302629831549 430.88612686490944 51.89552654475305
-32.12484257550286 394.8126857029575 12.163190700540609
52.517615462819215 396.7946869196431 12.766222320735094
-44.74541766368287 355.3749161778789 128.81253413998795
-45.8329830733229 417.8598573773465 42.34547900996809
-39.34827733072881 393.9871938962206 3.1766406441159014
-33.426102021599185 410.76797869718825 13.808246703556643
-12.78265889555483 499.99534512275574 2.1575114313494597
96.0445037528168 561.5012097062369 85.6760847520044
-1218.7334375589126 3331.155422701204 1200.8682483138457
-49.243634254211834 154.43179092525014 386.2729888972562
-41.68618936668892 343.6868152658818 166.74343469053173
-40.44683329681515 402.01953305793626 49.043807355046205
-38.71246852136547 475.9087224757124 9.321366398514618
-1840.2132768340184 3186.3989226080917 1142.4040029700498
-1104.633553322818 455.23759354570046 3545.8967460182366
-69.1034382978036 503.6439864959088 36.9828996498225
-64.31636472683006 497.73925175183854 79.19366935254318
-49.9538789790322 417.4190831544482 62.010555702234015
-41.35881091616519 378.98992003261384 2.764147910839776
-41.645257987091156 416.2551607318308 24.91267075441121
-17.31486465695434 391.9945732382483 2.062656482216661
50.00417794696641 377.7401573330697 14.01333429229923
84.5462180922683 499.04056335646777 30.959911577058342
-1536.1222998435874 3467.1952748929807 1236.2515624903324
-69.51395377284007 294.24228541318786 414.1080504829918
-44.50866942207608 367.9196453907759 77.5315067280762
-39.503666363197354 360.8681224533431 28.604163980073434
-16.16642975623798 364.4720649712355 33.408290222689885
40.74437197130523 356.70395569700844 30.434979712604427
41.10002632808697 332.37529531779694 32.903845708477
55.95705627398622 418.79403702692645 59.50255919445283
82.85529373042294 489.9769810181516 4.749533907435941
-41.57706321651435 359.0930339768647 127.33103686568434
-33.45602260353846 333.50514331553114 31.61201325583443
-37.69070030693068 411.97823312283913 57.705592735744546
-38.305824944460376 470.9988573355615 1.037491491699051
-32.92581671243095 454.67990581805094 45.99112137454714
-19.996980725211976 373.022227115713 27.02624793850282
-16.16642975623798 365.09869811815815 25.66983896377289
51.72389835254991 389.62060936198793 32.8143377259574
-49.9538789790322 397.9811351191616 140.33893290624536
-37.05129667436647 370.8684365619345 9.879411020214798
-19.744246177700486 445.7782293052077 33.02681149480958
48.94588846660733 369.4035291348357 21.000777669614713
82.85529373042294 488.56653758135593 37.45314880975336
-46.99452595894736 374.6339104087447 131.37135597934824
-40.813180165292295 373.1513068894206 25.18138532165064
-41.745126711280825 416.97723842962347 29.222981223771995
-33.28605540731532 461.99017360566006 3.0132195094393515
-25.73181316581489 408.5168217560112 34.842593795057304
-27.429013668539422 512.9825672558812 4.229147853327751
50.26875031705618 374.2565922228484 65.81795482799933
-1538.6070618725519 3446.4699868122884 1201.8088991192003
-1164.9249555475776 1907.9196865257309 2901.9943951991972
-49.9538789790322 -363.48759349316384 214.38462952494638
-41.84499543547049 89.45413482976886 409.3396606265481
-26.038849233096876 411.28505429895563 260.7941795943788
51.591612167505026 389.9977291047972 1.3308993580405537
92.10865527279131 575.5261330100682 23.35958523769962
-1548.5440226682915 2835.3795694229357 983.170228037347
-66.22982997254842 -225.6270687558021 428.1920431823373
-67.37904876144101 232.39762592055587 474.1047811048623
-54.452095569561166 437.2764583221547 142.79110265430708
-35.46599880673796 324.714060553167 13.630072599741409
-36.3522156050388 359.66383172287004 56.01721298335935
-30.351886064475426 333.5364706487702 31.27974979378877
-24.35213577418307 334.7348774636019 46.86749203261701
-23.53519496873313 371.4854000472613 51.22106550752589
-20.4781914913267 381.9834085607443 27.886835322701646
38.14673102307473 309.5388198201804 16.90322526412912
49.47503320678687 367.8908546179381 67.32250061074049
-51.72949079108311 413.13190833939024 142.44657353497027
-41.7953155168635 382.99999314489276 0.0724638673454184
-37.87190559686785 417.41793304401 22.051511813623215
-33.83274559850428 415.9889420618457 3.033163738799239
-25.229729006481918 401.99537424707904 1.9284926629007768
40.238648530791735 326.9370243453699 6.417329054601764
50.00417794696641 373.71993921553104 56.72219171311863
-1518.9088212486595 3667.445889000015 1257.36615639872
-68.00873036437306 409.2000084659936 282.07153892484575
-50.545749583049165 426.9893835607749 3.0110341063249972
-47.906379926639886 438.87360929344516 10.533521051599315
-30.65969832622778 306.6928152775482 13.730151387792318
-37.69070030693068 408.8277953237927 76.91445748808908
-37.9805100829363 466.9861511961889 3.5964692366511843
-17.002780402720344 316.6019488126632 29.786003559118214
50.00417794696641 372.6360359708296 63.45379969668169
68.20634361695413 480.7901443432604 34.12970996634479
78.62798282580953 461.7720772253827 54.69505183245736
-48.77013777099826 389.96377246122506 132.9370383595553
-37.7576479604041 345.7145185123694 14.05246205334069
-38.349590088832144 381.33625519187007 45.151527950236286
-33.588759452361224 412.3598903077521 22.98523146236842
-29.6116207194948 410.9995147692728 0.6315531824802488
-25.104207966648673 399.99694092987284 1.5643678416018332
-17.751330483343253 331.91131695293666 7.673179169498251
-46.05123537367206 399.6659545124474 135.46632350386693
-33.655760051917795 336.90542574830323 7.983364037454996
-34.61021037799885 378.61474226298856 50.743245275905736
-23.559610645437466 326.40305519427693 19.749571130579174
-31.631302037977328 498.2225527600564 76.09394142277586
-10.072735209697207 389.67405510841616 58.224829543443775
50.13646413201129 378.679458732183 15.584207849644567
90.80263823109617 536.0233560583258 32.37223748784184
-49.00688601260505 392.320702624363 132.21371446384128
-43.10482931895844 394.73674250491985 14.41888056003644
