# .PCD v.7 - Point Cloud Data file format
VERSION .7
FIELDS x y z
SIZE 4 4 4
TYPE F F F
WIDTH 849
HEIGHT 1
VIEWPOINT 0 0 0 1 0 0 0
POINTS 849
DATA ascii
-1135.24179599405 -3437.6627812165643 770.7162919248537
-688.5115228713789 2399.041770444885 1123.2985282909751
-610.9994232057683 -2487.234179033121 836.0873989299427
-689.4208676694741 1100.7251052187278 3016.442481258547
-510.27709395530445 941.315826688285 2420.399453484104
-534.066017604241 1811.668904790271 2387.4389582596705
-438.95226126262304 -2098.70914484313 1770.8573983671913
-329.310208940879 -933.2009384417112 2740.46729746799
-298.23891589039687 -2005.5092129792943 2030.5784389319147
-288.0910661149171 -1425.9773390422183 2667.810643306244
-257.04016767897576 -2982.9985252687943 204.49889545960804
-227.15298915764632 2776.6593972463334 1031.3130425257052
-174.05388841702705 -1659.936082105724 2492.917408042934
-156.66256735618802 -2851.119444696792 1472.684254031344
-123.93610812114218 2613.130166560495 1733.795470236186
-102.89131694564233 -2608.8020362143197 2188.190333550539
-73.08872464880717 1862.6211710443447 2957.3074532718765
-30.60293595418688 -2158.4682414339754 1514.8543991819545
25.28982568879602 -800.9145034407745 3516.9567751364557
190.40899334746646 -1579.8791859773826 2586.685670450788
289.30408646617065 -3011.448804578797 1055.29952970753
308.87912101912383 2947.4343303279234 931.0810213963056
341.31515073928585 -892.0473601393313 2996.018609299423
365.9604905211224 -2007.9739384084353 2348.646559760007
395.52618565258183 -1448.6226558461049 2738.4478086991867
415.0748685684619 -3014.3439523009533 326.7331284499136
457.1868414761565 2988.393836592541 927.4390963377117
473.24427494730475 -658.6943883082064 2974.950537876433
551.9090067238207 -991.7352359972986 3205.071952652761
539.186553114884 -2275.4408425941297 1875.891780421919
555.2077242788993 -57.128066060443466 2891.4356959939805
618.6062578415837 2096.380132300619 2250.9923013851558
658.8010860731397 -2941.733893135877 608.4551766364016
765.3018314370362 3049.217654279722 1389.7743330587411
734.3788145542394 -344.89495992984587 3073.7105372196306
955.5689393795712 757.7827163073711 2997.7040138855978
1273.5138495219987 2835.7247370635437 1945.6069016134518
1321.5448183114597 -1520.7755946609361 2890.3282842410267
1335.655121639553 -3144.9636118768794 749.3282858469539
-1687.857197269777 2691.2671162619163 2220.4058883292637
-1587.2530701075282 -2281.0454268777003 2515.8791227959127
-1503.2492921396188 -33.87862456670373 3396.83105832443
-872.8510419712271 1979.1698443566863 1959.3651337076328
-1054.6864825492635 -3178.015093907657 1375.7140192987442
-925.1806401378728 3128.635580886327 47.75355496795682
-745.8197989817361 86.05365366434997 3201.843807666298
-742.3043808216764 2790.7073237212444 1792.8863972177958
-719.7954412473182 -1752.0163140936515 2776.4235691172366
-481.67515701843956 -2172.1047438032215 1608.7790345313247
-358.0696202074286 -538.2901517935653 2653.9607594088616
-294.68596454482105 -253.28232671368937 2808.6025106758166
-283.32923031136477 1179.0239476219558 2731.3966264411215
-256.78226784518415 693.3282041862966 2905.419935444755
-231.75433262471546 2668.0499587786353 1419.1523587907402
-204.37153399425293 -2125.875243747611 2161.869202338808
-175.15807001299484 -835.2423154812559 2895.956884076403
-113.34462949344254 -1638.7896995556252 2353.6763415198748
-61.837870897431415 -2675.5076416758593 1259.1695117553002
-34.931678885894016 1889.1381421918622 2343.3431416922017
19.898121792293626 -2395.931446582135 1521.1037122033586
50.81759696264389 589.7598435611781 3057.642772941714
82.28321043244406 3059.8136008384467 973.6846142997535
113.20663030620642 -301.7764127232589 3226.9198931370893
143.2187868929224 1027.3428417281038 3070.7019857925034
174.92915957935696 1563.851521842592 2869.5282569841697
209.3807901112193 -1411.8082571087025 3019.2195092705147
234.92688793251332 -3254.8870474296823 142.38788036376093
284.29049814697646 3468.336500473453 414.3560298626802
307.34592701984286 1969.046315831317 2759.521082744453
310.27812059669344 -2827.238301784768 1283.6465965838033
382.69661015393376 2837.3245310922434 2057.8178989556345
416.8545431368623 -1410.3397622200273 2698.6972329442883
532.419223668973 -3425.0973504665567 141.03949740045337
550.7921718382303 2624.336518555955 1159.3182640559107
621.6228683317084 -2328.9232255266293 2032.3379663832097
595.3338811636281 208.2167255492826 2824.3352837794478
676.1264142355159 2887.715909713067 1079.8082351927285
1021.511081525832 -1305.1487023208845 3142.7688214105265
-984.2330122378459 2128.14736799914 1749.5753142058027
-806.3175473493062 -2696.980837473987 403.5137696511894
-928.0020764228052 2123.949513725758 2441.4205830098417
-852.9831975636869 -3032.795335931913 476.50021023041995
-836.5194931097949 2999.3521978597296 825.9584694123619
-760.269753100929 -598.3217138260583 2970.338554233212
-738.368586503617 -613.5391721421888 3111.078701069305
-651.5637042749073 -695.5027496907164 3091.7368783861043
-553.5042640246795 -1003.7507006611847 2632.1043921019127
-593.9051680491141 -2487.7102774882806 1964.738551380102
-552.420638829879 1065.0939967969273 2911.2840428215086
-556.4572409578562 1381.599355454802 2988.05073936285
-472.7172905437132 -397.7855112382332 3318.2421079615237
-395.1807177694513 496.9414021618859 3174.33744942427
-249.6470391102828 2873.0677808107707 422.726302549383
-205.3152020272079 -1239.7576851505123 2782.2862689001367
-171.14814737500657 -2848.6009200247718 747.3271027027076
-143.13949750337903 2435.994401107709 1631.733825650462
-120.73495226724789 -2827.012969982008 1158.0253311363722
-93.64469639193703 2507.9486553673923 1820.4380082938521
91.7902397287495 -3118.511570342954 1762.2739814333988
110.86635130882418 3151.5094822410288 377.17898051837886
168.02406117490864 209.5051792826722 3132.0007311387612
183.12181313357465 2732.6464243500245 1014.8243786424457
270.259661132922 -2310.5593240621683 2951.070925950336
311.07754892673324 129.27123959763284 3110.314766484719
347.42956162904915 2799.1234473801537 1513.2851437606344
406.58718985762926 -1547.9156422524727 2534.7301955967846
444.7672564568298 -2924.3818670669925 844.9418296958503
457.71279234319235 2643.361855824506 1302.861120446851
616.5588546053293 -2740.5713715491365 2556.7112776857075
522.4227617134992 2141.0800469398996 2112.7802139824757
653.5017612190086 -3377.038974748019 427.5789553203591
606.740923247093 2852.150413255157 983.6295136729252
689.7235072237098 -1384.0518142851222 2824.079597917534
723.5046887296479 -2831.968371843464 13.384351993277633
746.5794747989232 2298.8450349357795 1638.4872612721515
992.0363180492963 -3174.23838049586 477.81869342567586
1133.2189905317146 3291.213920230518 71.93699521709888
-1412.908331801566 2039.915920673482 1671.0810981466038
-1681.2832794625172 -3262.79641874542 1018.2747810989238
-1455.5812501642033 3457.3302236756917 461.5319322198549
-1007.8592128770943 1676.0761516333064 2447.023648011209
-1054.6776817346101 -1885.4182305205293 2568.2278123291235
-909.7165819736211 -1925.3585906344226 2283.673202862053
-845.9385782788285 -1687.3086336829138 2310.4784298277054
-883.2682687475441 -2751.570608714331 1592.136986964202
-798.0680988588464 2152.2368037489296 2043.746740814182
-710.9934788975905 -3096.366331610826 330.9252792805584
-744.5422595700084 3285.681022102727 522.7133258239904
-540.929087277225 816.1068823762575 2629.254372733476
-392.7601828850069 1988.6689581454984 1685.7178811736255
-358.0696202074286 -2502.64036395019 1034.4347290802154
-280.4721288292334 1083.5565307037873 2738.417470870571
-233.1347356648362 1186.2780344618643 2798.9898936854515
-177.13397392156875 669.8954662737249 2973.4734006319795
-152.17115065417204 2809.4701235613234 1350.0246756323836
-125.516925826769 -1606.0643653079837 2739.987820134948
-93.8562203915316 -2881.242949909881 1160.0323545464607
-65.66483416230457 2704.077168164971 1596.1098548060245
-33.980051753454376 -1917.7111947503606 2212.592997713123
19.97524629536453 -1710.7900423145975 2278.156805647324
80.00254841796648 -2635.903153911341 1672.9909035019425
132.16112885610008 1710.1854398335622 2450.1856585535074
194.3302526022478 -1721.2806768912735 2073.6966584726706
392.25279760710595 -2763.357155654215 1825.7056800850035
391.3130274451786 2265.5195365493223 2064.3755059371697
424.52083358535634 -3088.100186204425 282.55661373288757
458.063518065756 3088.637508824118 537.1623023674941
492.03736889828076 -135.99209648346613 3165.0798014732636
614.6973452580031 2209.0443140550005 3145.863827081724
484.462600537005 -2944.921026987532 21.567216016436696
557.2874241757091 2780.4938355395925 1248.662496644439
574.021817286967 -1640.472275730211 2499.790133703336
623.231727259775 -2800.1025199453024 1327.865534531252
684.2555731594666 2541.518272616924 2033.6444797344213
666.9154802757715 -2555.3635654087175 1648.5745505076945
800.9135590280531 1416.4495703513585 2796.7652054921327
934.5538398071875 -541.784502140979 2975.0706803771654
1164.7636741898439 -316.43324627482343 3284.793753137627
1198.1550457289595 970.4323964660347 3167.6852690709648
1289.0670864164226 1960.670005034301 2876.305639419913
1434.0339363428698 -3205.2035042078423 1512.1529342674864
-1657.1806227352897 2609.8946700994693 2130.4015609706967
-1193.758675789332 -2295.498147765263 1903.421197109627
-1113.030683819304 43.32780349706075 2840.6695868129614
-1068.7255408937647 2227.6507141412517 1678.1219549800219
-1043.6377669202273 -2851.098006211354 71.72279259510569
-1064.104445795408 2543.9057184998846 1688.002575644832
-1039.458551816528 -2860.2219343930647 1862.1760083345494
-905.2179992385967 2743.061238325751 1757.8905093306569
-504.3824798549351 -1545.499832834353 2049.614419033245
-453.85409841186026 -2582.6087599975585 734.4092815207825
-440.8704794473104 1361.6599257141447 2398.425785114926
-405.4152865913132 -227.1408941051508 2681.3966536536723
-374.41133096026596 1158.7852751515436 2379.8793427592
-401.3077168868338 808.2863848065218 2925.3885417387555
-300.64238297710995 2219.816766243763 1830.175544668621
-287.900592682775 -3022.800867714906 34.69746593067721
-264.0894298026132 2947.0748612437155 867.1411431971926
-209.03901056295368 -1028.6164183085618 3446.7894139308924
-153.53810356348126 -2550.3356120427275 1840.3296623014712
-135.2389547163739 1519.2725091009006 3066.250975228586
-100.0508518082296 -1165.1218574669115 3099.2276549574176
-73.69518330826794 -3263.608944478562 1329.4482530431656
-31.183196400796415 2662.8664856929545 359.3203019219128
73.59619444471484 -2032.1352468843133 2029.485239751802
104.5441050621647 -1286.7487124373852 2702.281767514397
155.44500594199894 -2859.8720546712916 504.329089890921
191.91668580551305 2571.139068356592 1649.9299655350214
222.30804036093878 -2500.8283874304434 1802.982633477663
257.9205807694728 1156.648299156323 2950.377215214825
309.61248990347 921.759288794938 3288.2495059712624
336.75918402926146 2127.5723626498525 2613.491121409928
343.0621252792182 -3106.944317262165 468.0395383216463
385.857371559164 3226.4393121937064 452.3863003352358
416.33663376793714 640.0909930576453 3197.5622778307975
464.0843682213344 3127.7449543990974 1307.4064020919386
533.8136294541872 82.13962117881535 3243.9602467713135
639.9297849786686 2931.679562465624 1911.8721042531502
642.1336817650309 -912.3839607192288 2782.2184508449895
815.0887008053662 -2414.0470304928285 2628.7141218795086
960.3298463752636 828.2408247743708 3666.619442507917
864.5414528289349 2222.8988204398306 1966.6582911342807
1298.836054508092 -3278.5341179614156 55.272392412151554
1325.7399583486933 3167.922016944067 511.81158111265626
-1015.4610109409645 2152.794545309701 1751.0284537050782
-1082.7832235414683 -3128.509089946057 331.2806576377397
-911.0084683407555 2737.7898116670767 279.3043986978243
-848.4049445659289 -1649.6052824608919 2146.3111172607573
-831.1404593927058 -2446.837228600992 1208.4819306602053
-902.4133313201623 841.6422426339575 2933.656819638944
-837.6681289341823 2141.8321750397413 1986.1510350334718
-860.7196713096926 -3176.171893544129 397.91092302210126
-710.3378452240033 2830.5166483289395 52.311600364610406
-743.4233201958424 -1573.5101540106746 2925.7050082373826
-701.0149900158308 -3093.09716475253 1045.4544128750238
-575.6952893561819 2762.6709344428205 455.6855362910196
-603.0190224677818 -1762.803483665165 2512.2270753214084
-609.0806628793912 -2575.582001045877 1983.7788071981508
-545.6490309990611 1478.9792519192054 2681.131174036904
-431.119537008483 -769.3238109045691 2584.946783586709
-360.9882996119949 -1389.4825642335486 2585.258827214591
-287.78905899164437 -2753.9689011898054 13.087829438732031
-268.4723026042815 2052.2972128246465 1932.5726765718764
-254.11730289600413 -2840.144574318759 819.4600642909418
-201.54052989538795 2459.3535511400496 1700.4940783474744
-141.72372484730877 -2639.2735336105843 1208.9847868284774
-135.39703648693657 1977.3670318146824 2797.766184207035
-70.76745184880212 -3101.2710341156144 1354.0952599265195
-36.66085501679043 3123.9017496768975 469.5943551253769
72.54555239310157 52.67541095724909 2830.5099012510955
102.06410791568501 2362.2531503639857 1719.8383800797749
130.30344230591393 -2846.9269557061675 757.5769986434476
189.96924971386954 2507.5031792604846 1690.267377073392
218.34211683844393 -2637.3531720918286 1487.6667118871655
252.79309683495816 1784.162892354736 2542.439531934709
285.7682483677123 -2308.685270804183 2145.9441559303955
427.82706524267326 128.2026337609746 3348.546712336077
446.33358834144093 2965.023059974153 1610.1286451155102
459.731885081727 -757.2045166108226 2861.510321495306
557.5021233344346 -1540.9176920083971 3018.425693379831
549.6402885928384 -2759.995373254263 761.0483162159028
701.127520697679 2350.4135979495095 2167.109807687197
698.4799741425402 -2753.1670823525287 672.0320056741823
883.1742730087121 2348.413595044603 2217.623409555753
1046.1258063818761 -3388.4629691898685 814.5819212510066
975.3478566241679 2962.4479387434085 1088.2270949737142
1146.0779985348324 -925.1098537562737 3433.556138827942
1147.115739732422 -2250.898494217334 2344.3455310022323
1302.9205627258295 -210.28883889807435 3355.416904683366
1357.8560521054405 1590.6747806268374 3036.599700697766
1406.5186125078487 -1618.1242214594536 3076.402119997683
-1068.7255408937647 2166.723733219526 1756.0835014039737
-1075.8397737536704 -2930.3161278312814 238.4269090767337
-1088.7326089205023 2888.3988025068647 1386.6392312627356
-1152.3330226359628 -1331.2313684145113 3216.393017612933
-1136.2085077136023 -3509.453880780037 341.1883038410583
-912.7621080554853 2610.203325530034 1648.15278399545
-906.8850673771576 -2511.454733928447 2084.7760357957864
-804.5214797121524 1143.5174115725665 2764.8565838810478
-538.2678652280821 731.8162979173809 2397.8102314617186
-554.2902125713954 2396.0516778317733 1488.9517645510023
-522.8988403864597 -2650.1348855935103 875.4804898798561
-478.53294324170446 1677.483030537116 2280.4849664621806
-414.9066143710429 -1635.214502936154 2215.985002067312
-414.5823993368113 -2659.7190395354005 1231.5257328748303
-425.5051838358587 1949.889061450841 2559.972001416101
-324.8860509822158 -2786.3313089791295 1379.2167475065876
-258.09150055253735 2074.677467931034 1743.5060665392803
-143.090677756618 -2845.7064002246257 701.9373787743476
-125.99117113845705 2639.690107550994 1787.5626243847853
-97.63343467000598 -2376.6120825391504 2188.8526695803266
-31.136775565067655 419.03097237386 2650.075856308913
-6.709667716480357 2920.8508206417305 29.520900334023604
19.849042563066686 -932.8387037013484 2672.8959861687076
155.44500594199894 -2039.3376042766379 2067.4424141395625
182.2423258663808 -1214.1736180728901 2634.6884873122644
248.54047220606637 -3518.1293267502942 1092.9876670207764
332.58027803962403 2550.617533631778 1665.072429995208
404.2078449890491 -2632.809653127452 1758.3712151871996
433.6930025148045 1799.1563847942523 2607.5391278088377
481.47596072748433 -2325.043994611617 2050.4073797956476
506.01254983084124 205.38147646362108 3069.1357821259103
528.675161787198 2845.8755936292323 1080.2444656583366
556.3732387685968 -1369.0079269629575 2717.658237511219
604.9306843716499 -3149.487758088382 97.61076606305548
708.4351778924757 3095.4388928660237 201.6483586156043
844.3868706465571 -106.42642830498414 3424.3465676473584
872.5105588764088 1966.0380120455322 2513.399199329874
1004.398141327169 -2952.1718853990797 1359.110429310011
1289.6531521489494 3271.258351505837 1419.5861360633644
1359.2780371990934 976.7779128093666 3451.4451913724165
1442.4361494543539 2062.224604775431 3098.4695705232957
-1092.2934660811686 1850.8136996119206 1494.7005216192426
-1047.0257959939097 -2422.787087856985 1775.983875747038
-892.5959667985834 669.8171166599865 2768.112900556858
-854.5914727211185 2529.3202147940137 1214.979527002148
-824.6496661375926 -2375.2625955953827 1461.7279507368964
-848.5655575201114 455.25157375517165 2923.7693145310627
-746.7203911644768 2968.0035997367027 218.01521036380845
-797.0365436017846 -826.319983361476 3189.7053602327424
-724.3975631071437 -1737.6693075842245 2580.4701853499027
-741.4092293223437 -2710.8304792529443 1904.5648092814413
-540.5099084611022 1945.625599579579 2130.2032828489873
-572.0226614980359 -2866.173082033484 1445.3898656856145
-563.2185683084984 2823.8870261211828 1768.5830666679083
-505.3002122732309 -1622.7393350569164 2935.307999249659
-415.32373599391923 -2878.3400004823466 1257.3940677541325
-245.09080871329763 2447.8246919838007 1461.6276123946247
-229.07021560225846 -2740.1217121777677 1189.0761129767855
-195.94592655715476 2067.585649009727 2043.462400928636
-173.00782164189968 -2881.3219692488096 748.673967441211
-138.55044130784094 2444.20243662899 1442.2615743258596
-91.71076268135815 -2791.7369530765723 1190.558602012827
-61.27323697310587 2260.786076856141 1863.7988933072738
-35.500334123571356 -3048.473629477602 253.55380174561841
51.927294006144145 3089.7699441752397 760.5561728572962
80.87381255832871 -129.24471682678 3153.352470494278
102.72776912389789 1718.3406317888662 2386.794183238982
140.12264264261213 -2057.8731725115103 2408.605822017669
159.0313748807434 -1155.5451511528915 2737.070770668351
216.46731662781 -2760.862931206012 1178.8298753817483
280.79078689008554 2539.955702357738 2334.7644485173255
288.9414364047903 -2682.7497880268807 1720.413489496559
319.67140347466096 2039.0767546153927 2464.907095366306
400.0694294434794 -3223.135336051879 1011.0799204285187
421.060477818662 3291.355672994393 209.24109024669534
492.55916131574077 1100.5814356650624 3425.540030924968
423.727018306441 1051.8197421123205 2702.531263482954
598.134470476248 1602.0151775240342 3264.053212032953
614.6982677423669 -1623.63871865137 2943.9499505419817
680.731881215388 -2842.4800427577084 1247.0457916709138
701.620739157472 2188.294299271084 1499.9256847516397
1115.8619839469209 -4077.132547226667 177.62655304032353
1129.6734185097619 68.2990697162732 4064.426187923197
1427.0222194904386 2876.403101536958 1976.462799414289
-1454.5718054939439 2560.819799788599 2060.720978932053
-1454.3293167494978 -2863.163969067389 1986.835948495566
-1364.1674168453933 3007.1526370268202 1905.4220051271163
-854.6731746698515 -502.0454981584314 2680.387904348707
-854.5914727211185 -74.85175476246546 2805.001464314944
-816.9620034199241 1819.6248981106141 2079.214810974551
-898.5497266843529 -2500.397657321837 2051.040603025564
-804.2525888432647 1089.5866422144504 2785.476969767986
-770.0554033883668 1167.789658495621 2838.138177311084
-715.7820986793184 772.0087028125577 2975.4795517330767
-535.8261137603995 2317.396814398142 1676.0883045404692
-460.2699172439386 -3200.3809971964356 588.2834969501936
-465.70206882221703 3521.0047518901456 83.72297872754314
-240.95701955885374 2052.0694990467955 2379.3223344225207
-212.2579025553768 -3025.23307980732 874.1657810961941
-207.46991040026262 3429.0702064699526 993.1654036967445
-125.08220095772162 1657.614986175263 2696.2079959838375
-85.87874383539369 -1607.1693263024106 2343.9220884220226
-65.95760730825116 -2923.4924048570356 1183.599661517029
19.982257613825524 2554.3969788416166 1263.944648505155
56.75773996020406 -2879.460565366758 1950.68984015854
81.82195294636995 2744.656874735119 1631.596653578711
134.79308434176198 -2314.7774088133815 3087.666845313336
194.78800847897182 177.87672945531705 3634.650033926001
223.45258638632075 3261.0819825884478 1420.420114908614
261.8951678854783 926.808597320896 3511.7587935295433
423.727018306441 1810.9580218900282 2265.0454836387185
611.952758573059 -2840.1378829401942 2402.5021968539363
580.9991803980283 2376.2592089272084 1643.0803912129916
796.0595374581861 -2990.724444615267 874.6561017798367
727.8025910898466 2592.4853207893043 923.3221872629172
-1175.1481652701825 2196.9533606188916 1761.6049305293618
-1174.5432443882967 -2932.8146810610147 83.39092608298526
-1122.8250404175026 2589.0769303192046 1229.079594204088
-1038.8806522743778 -2249.8041528970925 1731.5606468174876
-1094.4277627899055 -202.38827081044136 3133.4707574570343
-1062.5676866711644 1489.0596905241073 2749.696390159512
-1030.3217933768867 -1021.90073809403 3224.966338038721
-991.666001319549 -2780.243305647879 2056.2128200651205
-650.9333350022466 2041.619947758267 1753.0741538553157
-625.0395344090872 -2668.639120096446 824.1445544871776
-540.4149249218518 1556.1176655991735 1978.3292978698412
-592.5937055329173 -1301.00280398136 2883.04712136875
-403.8200221984812 -3019.8554938399047 455.3996007079339
-365.02813833895704 3073.8065370948307 921.6259395834538
-327.0805209309538 -215.25197350299388 3122.5897245560564
-239.01763177560053 1618.158843036876 3155.261947715523
-173.29839574610173 -1513.1140411563251 2569.5933332836103
-112.27757754214443 -2772.195700780302 621.4595695419044
-88.2659432593895 2189.171926178931 1933.847790708987
-35.86009560046927 -3087.2740788024184 129.76425684555116
21.85427964291023 3070.1304636667824 538.505279514685
81.36069546029583 -238.66445759353465 3166.0170998719486
111.04099899519599 1333.9177982197284 2885.602936578876
141.71494539991454 -115.6041251329642 3201.9137537185857
177.12380325829014 1996.7317226820362 2638.6631895024475
259.3041875454529 -2961.225633887168 1175.4738385900134
318.0725468145814 2939.57190148047 1220.8218690810281
380.33328181376413 -889.1972194632657 2843.1970218222295
484.6190747798005 -2286.984299038582 2702.0923033736294
488.74719870173965 1.31130966026086 3344.9997429696423
570.8269011420738 2611.16293741261 2285.3288853648064
607.0038404882579 -2685.4530103467155 2236.8207637671294
687.4823169580699 2295.5603451645916 2748.447507540907
1181.157373785325 -3232.3484728363815 467.63163938330007
1271.662273701234 3423.1354452735122 272.9463744256635
1348.6675590720863 1832.4621232631766 3050.993865415958
1376.1662457583047 -2795.2542986536773 2190.012421393572
-1342.9325249701637 2168.7742441833584 1732.799549217076
-1206.0670395793748 -2691.873042803784 209.3311286605495
-1405.7976413505698 2103.399865004572 2461.778423802343
-1326.3832585718797 -3476.129872651495 674.6866742865922
-1126.4937991519027 2828.4915810570255 1563.796462423908
-902.9087460616885 -1335.9188205510582 2463.0316491871295
-878.1033244767087 -3049.953223723216 271.3472555607738
-891.3257647505887 3116.986039713853 758.7239473147985
-724.6304134970849 20.344640752595758 3111.9334979386445
-695.7565028563739 2406.2277352348488 1968.7430218762859
-549.03483491447 -2907.8730843758167 1018.251012846378
-533.2646553430847 2948.551031714495 1560.4303295486748
-348.0847332974464 -944.3229367283893 3194.3411200384767
-250.42073861165767 -2086.8119351834666 2032.4332577420182
-196.88959459010977 -998.7905346597961 2744.933235594993
-173.29839574610173 -2324.0864064817624 1868.407443575059
-65.07928787041142 202.59537347809095 3105.398382598483
51.74778419028381 2959.1025076567425 1139.7163459298006
120.22746729835313 -914.8422574355055 3318.196444457487
189.02694192759043 -2044.7570316111485 2207.4985122705666
249.78171738135435 -1258.066767416623 2799.290804600674
280.9631350544227 -3021.155308733803 690.2330045061316
375.0987519197177 2816.130616204755 837.4081158397186
427.5259501947056 -1450.1986446018113 2541.3382087386694
525.917464827438 -3177.423469826546 353.254997693499
727.2251669169544 3315.559778141616 54.031079662716806
740.5520603280546 1078.6170203671763 2926.5587852244203
721.1546945451914 1164.975297156821 2684.084305124259
895.4785585459852 838.0493257808786 3165.959306048992
1016.302267156386 2573.146199259663 2356.276647008061
1035.611745103798 -2711.3394460308223 1969.2230468886137
1086.530297266255 2307.318379293995 2521.7069410564213
1193.095633832208 -3602.8802306972884 596.9573211299542
1298.3249655202465 2621.2903233915968 2328.2768393156293
1519.123263372349 -2934.64869763422 2533.5678442610883
1546.3523415703207 3386.4588732275056 1594.3479231142414
-1250.214447889502 2392.4170964310265 1904.6533639233508
-1357.2699411422425 -3370.2113168440615 1089.6970587352332
-1304.2831139077337 3305.03668449177 1095.9272394477885
-1042.504137963075 1124.5616021106664 3233.000186059118
-746.2185629446083 961.7524736686197 2814.1976084476178
-658.1506623363822 1537.6991023890025 2183.9694298483337
-576.4932590161199 -1120.2322264230115 2711.7219176905555
-434.9011329147556 -3045.8715564815725 1528.7676283256799
-345.78576477972086 3209.4638310884593 805.4954481156227
-266.3717762076351 491.43095090452147 2898.6368555741988
-243.10431317681932 3140.5273351676897 431.26332682542005
-233.89486245384487 165.1957277661298 3466.0655463403773
-59.14017548120935 2567.1023968024506 1186.410251275297
24.3292750596402 -2828.977217842768 2009.4247686655483
57.524736446152765 2859.7826093465837 2060.89020262576
82.56509000726713 -1379.273587524405 2911.8530819321154
122.39309860936355 -3503.700915489904 45.780943581437
195.96562216035062 3115.016787435456 1923.4321963602692
217.4846370732197 10.73403124549457 3461.9833593726617
345.4642152716252 2414.845122998162 2044.3627447035888
391.6606285285928 -3104.383297765615 1139.760211866462
452.31113646114716 3269.910388379477 473.3941824399386
462.3007882488204 854.4257282722373 3046.449191249783
517.353685542984 2391.328412721378 2318.859509006843
522.1338859437874 -3021.909463038804 970.7415707573913
539.443184136346 2978.324595696309 881.3731347564525
763.6302868530867 -812.3586907552568 3385.911599193695
1202.5698324579294 -1981.0444251575916 3102.454509827989
1241.666745404845 -1705.3813938946184 2886.9158805476213
1261.205854697702 -2704.236161442267 1680.7625600149447
1566.1075615991635 2425.029457086864 2717.240536327432
-1506.0877139731708 2717.7286052200748 2155.901720479982
-1125.1756860010703 -1828.795118218471 2214.473394642683
-1029.000491086844 -2015.8313958641609 1960.5529279895377
-998.9267414509137 -1305.2723811080998 2551.513278647868
-1044.0269310363485 -3393.389066703295 485.89571101064456
-896.0491244765115 3017.5437553552324 1138.0046944176647
-844.8551100453152 -522.3466035992171 3098.2766218832626
-896.2652006853197 -221.71746293551234 3565.1122516169726
-804.5352182153371 1484.2732823884403 2976.4423097362137
-594.3206741214528 -1034.039160879006 3360.508743295967
-587.9338736066743 -3002.790392168407 2123.895915693871
-456.049527361677 3272.731700935383 1088.4981459297933
-264.1973127283891 801.2699711239471 2803.7514927994293
-265.89472863915455 2410.391998626145 1938.2103634433129
-233.6926478753545 -3263.7688574839262 1169.5733602122036
-194.33596089033003 3313.8406486591916 448.10284008699307
-166.08477848106938 1166.9014817427048 3195.6133889922726
-75.57729638935311 913.0467035577798 3496.761604273627
-35.79046434687613 1983.1551836487506 2361.811067288637
105.91176020116019 -3219.7228692895897 1367.25588130884
140.43225706764318 3169.747005762382 182.56209754605695
324.9344549967896 352.89134783964585 3566.584317890146
488.0415258728782 3545.242937619758 374.80329942148273
520.1614431623896 2436.9995878331233 2595.117147433076
535.9914646679189 -3191.1606001787213 1313.7332392335145
676.923387208644 3525.8959863380323 27.0830855951796
735.0911121435258 2041.9670086949286 2327.1413226105296
720.4153014885833 -2793.3726883453246 860.8124209178301
947.703414937522 2680.646760420158 2197.109224833602
1209.2338358106597 -2606.888461164937 2770.2975564088974
-1314.874136480153 2132.3154425598723 1685.4539013039473
-1319.3082072892844 -2746.3768551748876 390.49989674735576
-1227.2805526838854 1921.554186940948 1858.1061612969565
-1394.943737387085 -2805.556908814146 1565.9563951161645
-1030.3663141305067 2069.0646420108105 1623.5367280048445
-995.441302715914 -2766.055611124945 711.106430968113
-1025.2155619372527 2298.9712543029304 2075.1241340914553
-917.7886567554992 -3069.317434450132 462.71642134298435
-534.0639129200378 3271.05947924321 680.0374131274982
-476.67781841182335 916.5609555362711 3242.9640785532047
-441.5046018731921 2131.407710582146 2570.2183119865467
-464.02655354930386 -3880.0860106081946 557.9718185379843
-36.150225823774036 1099.4143696777512 2914.5347902789003
-8.423263100422277 1336.9659212815852 3414.5879876394574
48.69611732065811 -123.52914411368526 2981.4420253552707
92.09774471946558 2128.8606722048526 2895.6498818640875
130.2173149588206 -3687.6455990085583 547.041073515335
189.6493305965917 2273.1972269936937 2717.613542648804
187.83335206497023 -2973.643961178488 312.31649355534904
281.441895961135 3221.534486610822 1256.7734686796764
341.15603984448035 641.4415289612336 3353.199780049479
430.1516186319471 3347.7124765039825 1408.632377399998
471.3399645386591 1369.9836808946648 3158.701270155553
596.1604293195606 -358.31955010861066 3606.242240894247
707.2795053166763 764.4811960521023 3352.952355892154
699.5923650377215 2609.1262030242688 1835.3638485848421
675.9014967281925 -2236.3977901883577 1849.359057630678
694.0152844946789 -256.59541467869565 2911.7156099395884
717.9506579665559 1138.9685245847018 2681.1041941717494
902.3142727333591 988.3282570306052 3148.524615808942
1041.8351523250033 1713.0356014234226 2689.8382903542533
1450.5745586801845 -2404.929416142647 2868.163786008705
-974.07684652275 1996.988714403966 1572.8318646769574
-1054.2497918994302 -2678.220080147847 1061.7430019985336
-983.9393548904151 1782.1576003142982 2189.347685417276
-890.214385991548 -2339.123876242277 2189.546869010413
-768.2990046188266 279.4551902286257 3049.2210147272503
-570.4861945456001 2962.3669910018953 704.5614314042289
-532.9449523123034 -867.810327994404 3219.0776993769887
-464.796234807493 -2027.8084274068433 2585.689266276554
-401.3077168868338 -1325.4611767473357 2730.2706219229567
-395.1807177694513 -3194.6294977887574 343.0909090284248
-353.72765602277275 3384.680695458787 46.492900410948366
-290.0910371524091 1389.6735406927514 2710.5208817307557
-286.4407487312198 -443.17544658569534 3302.396027665908
-220.34648569499103 248.42932343655679 3259.546574488061
-164.8642848120433 3238.2504692070556 958.0516158747845
-149.6639162802186 819.722358893556 3697.2184482837883
-106.8196197952557 2682.08765329724 2302.7441933550726
-43.716822047562374 -2574.625063856926 2749.8354097217743
-8.673640978236847 1818.3243466799263 3309.361353837175
24.763976804221667 -2725.7075067111036 2246.228525297179
61.7513766559552 2623.5841910669883 2726.8043553550697
85.922019489251 -2529.2205078149814 2201.2843121341975
208.44044071304052 1471.3822531559313 3266.944025400156
388.7018351349513 -970.1662596066532 3425.2558194565318
443.7859978464733 -2596.9545095203716 2310.498490690224
501.4575341577427 1887.6519815238585 3139.1621488303294
525.9812846975487 -3132.8336237667186 2000.3605889430762
471.06755414481574 3209.730899436011 302.99101175727117
546.8635024907975 590.1651292306365 3471.1879984005745
608.6626899785801 3524.9950618182634 1124.459787701125
594.6727181206852 2254.2497512715345 2577.233799811772
694.0152844946789 -2915.515965255547 209.03506007370012
932.7777573038633 2894.341613337489 1482.6633553517609
986.4734975742534 -1190.0533525007731 2961.8637744166545
1244.0785603915874 -3091.4146143537223 1105.0993992217288
1280.6151156525348 3188.3394027328663 535.5192367982961
-1241.5138849447162 2127.172317668603 1669.357340698625
-1321.815023733012 -2953.3622826113756 447.01255871454714
-1373.2359294601151 2904.1774319899364 1253.125070980681
-1220.376832135562 -1111.5582299351354 2909.9249649197945
-1274.3168160580442 -3017.058334724124 1571.929707357074
-1098.893483191249 2872.2404344806246 876.4952290426637
-998.9267414509137 -1170.2745418143409 2616.1830013936783
-789.17017008386 -2340.391477855498 928.9196576568711
-931.181347180885 388.9224231078845 4142.784130123593
-676.6475704539981 3288.0362662968428 139.6370707108867
-715.6061517848359 1093.933465702385 3473.8269347531364
-562.0353360221361 1241.836395814607 3084.3909230235695
-567.1531766058946 441.01997492372965 3520.4836857622663
-473.89707611755244 3848.4721440432063 186.7382031708786
-225.8736841737274 3213.389762203238 950.4352877326352
-169.20924227377617 602.7548971148657 3413.1865659532955
-59.37773779834623 3454.0399094696368 1186.0490309388492
48.516607504797776 1665.9185593549767 2462.406212142229
83.82073538602445 -1888.672845512058 2670.6470906178124
291.3713092946395 -2292.009579114899 2750.1076504830758
386.9548605950189 32.47247036958897 3543.851229759525
432.87559639310757 2877.1610853157104 2254.1005055553587
533.6491260244633 -1299.1433033647697 2972.501081130581
713.4847519351728 -2969.9334212160284 457.73406421639254
717.9506579665559 2706.8896487711404 1076.251564168736
911.0639868931978 -2169.9276388521516 2528.564423174843
1034.9745257339637 -641.5207822255933 3102.366046418872
-1087.9073400372679 2096.209298697633 1639.1545308644872
-1024.0979259076594 -2559.6597301680254 530.2245427704675
-1063.7640211911294 1332.8435710654442 2583.4428608098756
-1041.1005501444101 -102.17770103604026 2985.2518683372414
-860.0011702581857 1706.6129716818127 2148.722449477217
-814.6942942013513 -1695.639845857546 2068.9201321317837
-762.3104528849099 -2179.7576444784986 1303.9388832830884
-818.4683977055388 -584.6752059283588 3094.2456113845637
-807.4416057685775 -547.2665971666916 3171.1233453818204
-616.3945128105004 -364.60730848595426 3439.730005479882
-620.1827512376593 776.3043908772818 3585.9325834020715
-512.1136037900188 3121.103787689813 2293.216114209104
-486.6884843491188 54.30556204557189 3956.6273397845944
-229.58095144605062 2759.2292531907215 1996.8700329106478
-138.40059012762754 -2028.697763886719 2854.538383487079
-76.01645610827298 -1582.4187372516333 3272.487729540777
-44.29708249417191 -3596.5946001969205 1278.2786401385079
-8.813760708022983 2896.5458532295847 2516.464011294121
27.877002200901853 -1468.1428774793924 3695.0145454796966
142.24571298568202 -3183.612315678106 455.26763937566193
187.40115902305038 3500.947178357339 19.231597743973833
219.05515005035156 2183.5768633028238 2718.668990894
256.0544441523495 -3546.24203004139 183.76197748152535
290.2318684203029 2886.847162632597 2093.434847230772
433.82306691872856 -1409.9938887835015 3380.752317693974
467.7882324825887 -3660.9878528801178 148.53935863677546
861.6209454108721 2204.306713178789 2399.082306682062
1100.8203628945773 -3561.5670250385406 55.536710004468155
1227.5367285515638 2459.2362338190846 1885.7248331268602
-1351.929609483453 2132.986502770728 1661.9219533413411
-1300.0921989171409 -3148.8560991970726 443.96538890931254
-1359.456695829984 3462.4097430575266 229.38781829101984
-789.17017008386 1441.2739344800586 2064.7163112128437
-815.9125286599702 -593.6817255920699 2612.3902864422885
-898.0215994548598 -664.0222851856009 3516.861584534838
-792.8555777498631 -1036.719165047683 3243.337536061092
-682.6101288080442 -2719.450099952246 1904.466107304018
-588.5735458734069 2386.649897317215 2535.394696617417
-556.4541654694697 -3755.1917296435345 1172.5574926701045
-501.9321559480794 2076.154255835523 3177.923772839123
-316.5668442201602 -3229.310995889326 787.7350391015303
-288.24604756776114 3343.7576053857792 248.78520137813388
-228.09804453712132 1325.045956418779 3113.7933800074534
-203.92490632899762 -72.29690243175101 3508.255144355777
-166.86589442924608 2262.434095931805 2562.0530754777965
-114.73666092293801 -3783.0131802775763 325.60755188744776
-77.5221465731411 1874.452387776612 3198.1677951537436
-44.47116062815477 -3181.397954204649 2136.1018367536863
-8.825245931775944 3841.8317754524064 35.95287365722352
27.66666264707211 3770.730959400841 1162.9720683731032
50.03428140252606 2795.441869029265 1259.3096350295145
86.81890904550622 -1784.313188596565 2880.064312650042
122.74239398210717 -2701.5003695731357 2247.2409201499095
147.77454200409318 2212.680842497168 2503.2627687172644
174.6079922117082 -3261.9984448866553 3.185209104662466
290.59403264825926 3995.3032464129883 527.6854832206749
339.25913242131327 3740.1664368932397 117.1282388552204
685.3066569892047 2896.6993680832875 1495.5710517878722
733.8044054596289 -1234.681409754168 3109.867813333464
921.1808438905111 -3251.0198603817253 883.7595076736579
972.3178468810595 3317.028013948882 373.58955375965155
1214.9557624785334 1330.9149246593913 3582.7851545018557
1473.829423494281 -98.11198256195577 3179.4865998896366
-1300.2762193872625 2197.4958878121297 1706.02925621127
-1239.6773259433187 -2698.980670110794 74.1845156908783
-1329.9370827287607 2143.660664467353 2446.7790982463835
-1190.9937623409658 -3017.6112946894673 368.26902416923053
-1295.2932245528268 3308.4009088867006 1006.105077055897
-1195.133571795744 1091.0760907998176 3078.3614089455104
-1239.66916604912 1312.028322993285 3212.3950067921955
-847.1512985451443 5.717707009026516 2702.9939526063613
-810.4304735961854 2015.8118909248424 1737.073234036496
-700.2801551238757 -3354.5017475905324 1203.9161205881676
-669.4981742205985 3597.137846020048 1084.2731744031341
-619.5844736540156 2898.005135958142 2573.8963133662223
-545.4212664083059 -1414.7012153317605 3587.109765722097
-288.24604756776114 -3349.013676733383 163.45150061332927
-227.49140080165026 3240.5734667721435 943.0316041641285
-217.4656595848131 824.7869634565685 3649.9712964504383
-170.86911366365163 2635.2754987890053 2303.328688112567
-139.82332606269165 -2620.8207083956227 2376.708399119392
-77.71035788124962 2045.916816970662 3102.076784677748
-43.890900181545234 -3621.870485815442 1088.842589164757
-8.63918530697796 2727.6323184310827 2589.429075192112
26.965530800972967 -2397.3839096966612 3007.3686820088337
113.48606660440132 623.4127209514783 3188.6294201985706
364.9390326631641 3409.041744625154 1309.7856249795557
466.2561749526239 1802.7751041338342 3176.02045395102
912.7045582981675 -2517.4416575254954 2191.969776469394
1030.3691978320626 1429.7748743511854 3357.222782103394
971.1526966750906 -673.4405417322031 3265.2769923471174
1055.1311935243314 -1125.0999378639494 3330.0713400494196
1120.543972458616 -3163.7594068487383 1554.4296110072403
1042.4885453336735 3188.429252049612 128.06211256399132
-1504.9939067659147 2460.698256585076 1903.4928657704943
-1382.0692957326153 -2685.4702267093994 1237.779730589157
-1313.7565357402177 1939.8535343325075 2322.4220687329166
-1222.4137342019658 -2656.03917543676 1373.1554531607896
-1318.3203981175493 2021.7264529826625 2689.953001319938
-1196.963231274917 -3089.966719412647 1073.101427136431
-822.6270177002318 3119.9439666286703 532.1415649029482
-716.4738198109732 39.042289195513554 3336.7715983648586
-664.3494403476841 2816.2497049288318 2154.7281961974386
-621.0795647819839 -1683.5201689702053 2951.637484629596
-664.6867686565962 -3240.767827136678 1846.7062274752345
-326.28098925940697 3410.7907101274773 322.46353547044475
-352.63503940440086 2035.7933491995313 3561.1724809892257
-250.08301743520752 -3105.854715726712 993.8749844915831
-229.24392714856668 3367.149892282359 478.6466367821887
-216.65205209304736 1598.5387016790014 3367.88628359605
-45.875390908949846 -1888.017520889659 3472.9812612240894
-9.190476047120134 -2565.058461618493 3070.5823695969093
114.04493920079109 1524.2582288801698 2887.3624385745356
160.60142532680703 -1307.2543392660536 3387.513408456131
180.87075588085898 -3346.520551872675 467.3769312811727
224.52053521077042 3435.960165523076 983.6939264520432
260.45301387729836 1928.5876537702757 3054.02908658789
313.34624044255924 -3384.558934643463 1835.0097596266633
337.98985720648204 3508.0457565617503 1261.58589476464
385.92402632670854 2455.522039834691 2980.8481195602835
438.38142361427794 -3661.3525518732285 1647.6414934358136
514.7366443988842 2542.1883991386394 2770.357042564175
684.0266672218942 -2991.740916949456 1935.0595044727768
732.927173653939 3150.271313890966 1115.6857303361403
871.377384226983 237.0317329820756 3662.337499133513
901.5548811865142 3249.0515267569804 1031.961809602532
1119.9699809500084 876.120307324212 3626.6753655509515
1185.7103595094006 2577.556149175873 2696.127648655687
1273.257375240857 -2703.3436392663248 1995.3779511757423
1211.0728014628844 2077.15004506525 2334.753239699097
-1340.9301821873598 2124.2342869490176 1637.3004288004693
-1284.643124839951 -2868.042767036944 449.1544126990943
-1255.5429230473621 2504.3871373647744 1557.1275047990996
-1329.9370827287607 -2841.975535525165 1582.7773234022688
-1356.5035549530035 2918.161864961869 2003.9788746097768
-1305.406850077097 -1163.7666787822602 3284.946288351776
-1131.0954900246923 -2859.8375508387267 1172.8640939225456
-1136.5913648737562 3235.0496308361085 2076.2441778430493
-792.3898769699807 718.0312942884023 3326.3854347358065
-743.3120659830953 2983.600953618401 1756.0094958648056
-729.5567384890434 -832.9658968988618 3618.3610674728793
-653.2819554678504 -2082.801084391721 3016.868516004082
-635.2703672129668 -1275.1773321102762 3429.6069412794404
-637.7622023493292 -3701.6770092740267 730.148148674019
-629.8149706390149 2453.1525914421363 3083.1221777770547
-584.2439544411418 -3542.97073458515 1576.7822848678766
-567.6285119544947 3262.112653648197 2337.261225218165
-293.8338772999128 878.1439190444155 3303.269177261416
-283.2893794558898 2543.2325660579872 2679.1050959120853
-229.24392714856668 -2852.3436443531477 1852.2787950301122
-216.65205209304736 3110.8218503560106 2054.451609395462
-185.61267718548672 -16.048241760880057 3801.9661300354037
-112.89338035504251 2735.4991250510247 2544.551146439206
-8.30151972864088 -2213.7559441320805 2856.6204892879773
24.406399562711105 -442.33446186227883 3452.7816646653187
87.56204610640341 264.6773298817376 3406.733759929982
120.33225591017622 3329.8402765557867 883.2829289796571
154.36490619403926 1288.1518533515014 3243.5728452906824
194.1456737436743 158.7669559584931 3623.5234308191903
259.4435060715724 3248.9242505547268 1545.99327752659
304.0679361801042 876.4876896779859 3631.730349274702
339.44045745200344 2585.494836662035 2707.905546652976
323.46868804235 -2577.49769586732 1958.232526488786
401.3722014162083 1646.8363815839132 2961.9674090529093
505.4040539041308 -1902.076573664722 2889.08042600338
494.36709128889765 -1980.0860638731247 2492.1372714309773
669.4361461135967 -1778.5549296873821 2999.318482936534
837.2415738729259 -2841.7743475134594 2316.0040064331615
875.6511697627012 3039.4308300174544 2088.8284346828027
950.1200777415287 -495.2358243252709 3823.05721619555
1030.5522708884941 -55.75523043717515 3768.5875808157753
1123.204798554034 2634.7255738846097 2815.4852424259684
1089.0017564187963 -2650.5327528808557 2399.0208681680597
-1147.6056301466626 2181.019338443017 1675.0088493311262
-1320.9606809823085 -3259.8385610649884 183.51445663419773
-1074.4628725079033 2662.1977108965916 341.40789108769513
-1043.2948648401289 -1886.4487477301154 1879.5957337117677
-1050.8687769226299 -2156.6604691090542 2567.376992376132
-1178.337280099076 -870.9884352928743 3769.687008968526
-997.1147156125135 -2160.818549704402 2724.039683127499
-941.6558228449057 -763.5865185209656 3417.7389643934234
-946.8657900416887 -1692.444632687319 3226.000645580823
-859.2029750754291 -3058.3494542872036 1806.4336731419628
-70.01460661636807 3264.2681181762746 744.0817513270451
96.30031292591865 979.1520222493572 3628.1986325620314
132.4178758071054 2087.3601583814984 3164.586634807391
364.4633116872473 -3923.368726516251 876.1151955047077
380.0541145897352 902.7609256011106 3079.399894656072
444.16901222896456 2284.625398961522 2623.724030156355
596.9906010578042 -3323.0406982038476 416.1748647874886
662.7844201564783 3522.940143523139 854.1181096037975
847.0619196657616 2431.8561127959306 2800.4922507761144
899.1569902091512 -3514.6622652120577 1410.148276421472
980.9281217668702 3345.821627108145 2155.4298039081223
1007.8481627960668 1557.7789091172667 3624.410278970831
1043.5715931833338 -1633.4874067051298 3592.023787802045
-1262.8328396596637 2224.441606949491 1702.1928613620623
-1437.7559464708925 -3248.379135172755 63.51373217109878
-1310.2832864719026 3000.5634347005393 323.9491848085171
-1286.622825855927 -590.4779200590323 2963.750972319159
-1345.4727756717957 -592.4965850148586 3237.2254782059485
-1323.8052378125406 -620.0463871989468 3321.623620719472
-1366.4941095498223 -881.8027726646568 3721.968413369588
-970.1579185841625 -2152.048909235053 2610.244144186558
-919.8347600761834 -824.4259561622576 3441.633746174329
-651.5736317683304 -1886.9800307513037 2822.291863635972
-369.40244137090156 -2271.2126258945837 2708.840749836917
-260.45237709557824 -104.83577565745144 3862.5775668771107
-39.13276451934705 2084.921186406178 2650.1863418398816
-8.152211819852376 -3460.3665819579414 788.2030946835432
23.964686499668645 3035.6314801018493 1570.880491003264
87.53642069051041 -461.29370548164053 3384.7103446651113
121.10070573021217 154.0453663630631 3463.576045809023
199.6055189937032 3353.8965610826604 1629.9751094902965
233.44104892087938 1515.3206012954327 3393.001543661548
316.5203971639254 -1343.3761314277808 3649.6111531929164
365.7325869020785 -4022.4414481341987 305.157002757683
413.6042322543363 463.6544480213468 4112.948522997828
376.97483538146685 3170.6863780674803 279.70858395359454
458.59588730279984 359.53909093468496 3573.960777917108
482.4643498096097 3287.5072037523746 309.03136616894113
497.00744333159673 958.3528246193646 3053.122968952296
662.7844201564783 2104.468650067349 2951.5820674485253
750.0679732910302 -3836.8068140931955 737.2668928739612
809.658255549485 1701.1609983491069 3648.935085431895
861.0478733214056 -2566.1272979197593 3192.5235615216743
971.8089407353691 1847.28265682565 3483.503378179956
1003.1087311060277 -3045.2538099319568 2261.2558973046157
1142.7210645040134 3803.9626218788703 959.0606713594459
1139.1420150559832 3442.839989207814 1316.6050314014215
1240.608271643594 1703.973766125232 2627.9074192895364
1335.7071173441911 -2080.668870671629 2562.697416906266
-1296.772813601512 2632.17569997177 2006.9257795140613
-1329.7544670799698 -2642.57332778387 2370.5075843129634
-1297.628841040388 2166.25908668055 3027.878889482529
-888.5473178529871 -3187.254947675951 261.9349127458419
-897.0199386095389 3335.998753715152 2.8836107492373735
-903.7926239833487 1365.395940887633 3333.181351893049
-791.9922337857189 -350.15867182435153 3836.051733820362
-539.4988644433186 797.0452041067474 3279.534104504851
-430.26534126845377 2550.8266427964845 2020.3463659480806
-454.0949922206082 -3069.4767143512468 2051.6278171382532
-392.6697206438391 3379.9310021875285 701.6911147019116
-362.40103724873734 1556.5654964228481 3099.0527351669725
-212.7583590967399 -1508.4475492361998 3335.791808731969
-180.68188276262134 -3617.84177084447 780.1422441663767
-112.13793749934763 2709.2689209269593 2536.0171360026866
97.04344998681584 -2454.286062890625 2884.0681201214434
202.49602530254202 1090.4132371569658 3622.442266238741
255.69390565030454 1344.5613017393018 3281.1996138402055
316.1134539945195 -212.21483415566271 3878.198146583576
334.816669169404 1702.6349140174145 3277.0845807773885
407.8083768615478 -2564.9039798076774 3174.2445675099984
380.0541145897352 1497.3495519588073 2838.2433509564958
