# .PCD v.7 - Point Cloud Data file format
VERSION .7
FIELDS x y z
SIZE 4 4 4
TYPE F F F
WIDTH 863
HEIGHT 1
VIEWPOINT 0 0 0 1 0 0 0
POINTS 863
DATA ascii
58.605326147306 1859.0028911639022 1332.0950606635595
120.91951391975745 1836.2429082375404 1315.7860699776918
206.5797393470022 1537.924560595585 1102.02179920221
756.7544578440451 1623.2744965694415 1163.1805142742144
759.9724043739892 1594.011661378405 1142.211811963813
743.8896341464462 1526.5445691324041 1093.8673038592763
749.7925745043278 1506.2231558052954 1079.3057050326086
777.5140547249115 1529.7959952647416 1096.1971596715432
857.5154758434385 1653.3501882935623 1184.7316805376827
390.89035734027726 746.2022973714307 534.7019089152373
889.267006421491 1680.98731041843 1204.5354549419508
746.1536740220806 1383.4818193095591 991.3536481195358
401.41690014506196 737.260875507503 528.2948054315035
664.7569796282247 1209.5305212295086 866.7063621632605
743.1026789162323 1327.394718526739 951.163635357933
634.8672449290201 1040.4563623479644 745.5538599253853
-198.85426315634612 1699.3644977440918 1213.2206327815936
-170.78653168604941 1812.4926898831861 1293.9857994274946
-99.68992288605047 1661.9263909930246 1186.4925920210796
-77.73671067419856 1600.8859995510672 1142.9142646941546
-45.42166235685527 1767.729736159084 1262.0283593877496
-4.2242652963393965 1496.7103981567934 1068.5405860562023
183.61275803595157 1836.094974574076 1310.8360859939057
219.1432909721574 1784.821045762832 1274.2302910392887
244.61851895104803 1559.3785333705364 1113.2810021118455
746.522925364431 1603.3276152087456 1144.6573977872315
752.2215384446267 1579.7253305178554 1127.8071112208204
757.7533919713267 1556.936917712858 1111.5378690187683
789.0423746807552 1587.0501774908903 1133.0365105000515
738.6796651690445 1455.2029319762626 1038.9073234738933
937.6177081002003 1810.0510742255078 1292.2426663344177
424.10326351951653 810.6163983491932 578.7201869015647
876.3666146455506 1658.6709034494536 1184.1684145636436
750.0992574922326 1392.5347967625196 994.1669074182503
378.84549782157995 696.6743343242063 497.37397589130467
664.7569796282247 1211.0413662084331 864.5940141661931
806.8101957859644 1442.994853687871 1030.1916580085083
569.3628429597242 949.7884908368559 678.0787732069539
653.2503507952434 1054.7779641170225 753.033496209265
-239.3469271021949 1585.7657419992001 1127.9463690715643
-195.52097809385947 1672.958411266371 1189.9660306803296
-127.86701846540164 1545.836388783393 1099.544841792784
-114.07939330972424 1599.6187829108069 1137.799960168284
-83.2695726438924 1716.9621882797096 1221.265672987557
-72.49229643248046 1954.9085380555402 1390.5155906488606
-24.045992907499134 1688.4412216969902 1200.9788677884283
15.971783454138436 1856.3074821552816 1320.3812069604437
51.68646385619423 1643.6225599241454 1169.0996024755113
76.98470015269329 1796.0060099518178 1277.4891045394284
106.52051027017146 1621.6206714174762 1153.4497813218977
125.57821765146336 1628.9546342530325 1158.6663883731023
202.17740921954265 1817.1930136989806 1292.5593026873528
267.1779187009061 1994.0230065118412 1418.3374949219517
256.2907771804883 1763.410619571567 1254.3041843118526
261.47115178066093 1668.8839874688397 1187.0679156518827
265.99289895399784 1583.3210877206814 1126.2075000544962
709.8941696812072 1562.1340839735185 1111.1373019065718
768.8807185606247 1653.4011770382206 1176.0550785437842
754.1592549269674 1585.7657419992001 1127.9463690715643
684.8696365490977 1408.9357491863398 1002.1681768369654
737.6534610477008 1485.5349165799291 1056.6527393717686
782.4716363703412 1543.3917345048742 1097.8059727757156
352.2567101765837 687.7627370232914 489.2018168018501
892.929094314849 1725.9259206342786 1227.6415260501403
427.0839089458585 817.3294137847881 581.361874706464
860.0261183960262 1629.7695190125387 1159.2460113787918
752.2912483089838 1398.3422473127582 994.6330777630033
323.52343330324175 595.6807591990829 423.7044171589484
731.726336618066 1310.3346932860811 932.0337931485485
722.4169123942421 1248.4034515636047 887.9824447161544
-480.60320483868355 1684.0075913326828 1193.4045551839897
-250.66240361473444 1662.7943174108564 1178.3713582679125
-142.33489124800525 1514.3013999580712 1073.1389798553705
-130.09137882879557 1574.6776411201927 1115.9257710780523
-129.88662457831566 1823.5256621262336 1292.276734901268
-41.55287435684688 1621.1836647180428 1148.8831643171452
15.796500492613651 1838.211774841344 1302.6843327662446
51.25083178601312 1631.7903016789562 1156.399762775184
93.2381725664856 1719.9069779696197 1218.8453499650439
178.78648026051036 1608.9452374554508 1140.2101660963312
218.3438626421176 1782.7309045842596 1263.3667408318884
240.86411469317486 1799.8647027518887 1275.5089383410277
710.6348000095131 1565.7027944609583 1109.565572382789
831.4067503804882 1790.073960941815 1268.5705397643767
784.387632051481 1651.3717852991035 1170.276559928486
715.3699037638348 1473.5066424160973 1044.228985785991
775.6893498784655 1564.0710041592795 1108.4091726200138
780.819109155198 1542.0418350866134 1092.7977758225488
371.0381698423968 725.330789096296 514.0196945535693
875.643875775232 1694.614228293596 1200.9211536420285
401.1097130877355 768.5732320907883 544.6642882671116
821.324943068205 1558.359738103403 1104.3617734503007
309.59195397380415 581.7332425485479 412.25651542935304
779.0335362733474 1449.8456830417524 1027.4611892257508
614.7215080433045 1122.6717275551218 795.6030367893266
628.4291485507146 1126.7512033093192 798.4940361962645
-353.19280843897417 1619.1018586064556 1143.16804165316
-284.8209146458043 1376.4816507325318 971.8658679039225
-274.3701853509654 1695.0738428902098 1196.808116261507
-190.60538983324594 1490.0311756297554 1052.0375923185488
-129.956569109802 1574.9890935384694 1112.0221918805714
-90.46299074821327 1513.7213642773777 1068.7640671964205
-39.168864454139005 1530.0594254136688 1080.2995671121942
-25.183303382853822 1772.6796332875929 1251.6017408614314
-5.269420657858932 1873.975612332598 1323.1218403392274
31.381579627220358 1570.9045782543967 1109.138316901628
48.02202938349429 1530.8763284704833 1080.8763421079827
132.8223841533731 1504.7354306524176 1062.419542242745
216.49701510440508 1493.2987878570136 1054.3446923017036
782.8462570193385 1726.9330621059776 1219.3023410972655
243.1377667285794 530.1700838726487 374.32697226685207
830.2699134383089 1789.8345974806984 1263.7140157729937
260.6090635232082 555.4940786339 392.2069971363011
777.799396011523 1639.5244350268197 1157.587416547877
642.0900409751806 1324.1998550964 934.9522681734471
702.0453949082616 1417.3268035732597 1000.7046176933565
768.4251550416234 1519.4396856750795 1072.8014921669412
372.290267153451 728.6775266785866 514.4832962435008
882.8109176087316 1710.5950009696862 1207.7668411814918
390.46455085079987 749.1001030989505 528.9026711382178
790.7940158651461 1502.2847214819737 1060.689217255379
783.4175179068496 1459.8057625276167 1030.6969174743676
793.866366128599 1451.636731959471 1024.929167516481
762.1657974373128 1343.8055284599493 948.7948680723755
718.6497522370692 1223.7207791082092 864.0089436914398
524.9652262422136 878.9876891324653 620.6098954686177
677.5223879476886 1115.8895756086874 787.8746442473342
596.7966167759014 967.2132192684377 682.9015950137948
-353.78645362235517 1711.8824368381165 1204.204103316872
-282.9319614338484 1536.0321148504456 1080.5042073717564
-204.2827559723958 1754.4136775049021 1234.1222176849933
-169.40612864592867 1806.7598198640226 1270.9445122919115
-147.88626173594687 1794.4911927486037 1262.314286993415
-138.66196252521755 1951.5296198259657 1372.7811708141696
-105.49947275061461 1767.500213094682 1243.3277913367228
-91.5293451557925 1894.2760266206774 1332.5067860878528
-65.99548787350452 1786.3121080049912 1256.560803461084
-47.30377543794043 1850.1089690051695 1301.4379750132655
-25.171698173921634 1774.0434808895723 1247.9305781625876
15.754432581847702 1837.8403418897506 1292.8077497147692
34.69435168355199 1738.8734164920381 1223.1905989735644
57.50343326390672 1835.3866164666667 1291.0817046550699
97.15312871374934 1484.5038809656862 1044.2572611180713
845.0592045970343 1866.4671384923945 1312.9449420779276
795.0279682307494 1715.971979209923 1207.0808450830377
329.977064255121 704.2191964250446 495.3749321336966
712.6921222048783 1504.1336843503566 1058.0656215956656
728.0453394894398 1503.3157758759953 1057.4902732424325
672.506885497136 1359.3638843884137 956.2289630734074
789.4948770347002 1563.0230945043672 1099.4907030284485
402.340602618752 788.4637692842543 554.6358125167055
865.9472897652029 1679.9840063380275 1181.7655175407815
396.4258417034838 761.4727896303327 535.6493168600134
875.5065885271546 1665.2616537995248 1171.4092471825857
790.8702866838034 1475.5068877477124 1037.9284292325071
683.5202814725698 1251.3999657727272 880.2829804466385
568.4969200337889 1003.5736980412656 705.9524294170101
620.5617863647667 1076.3675522594178 757.1584328547558
742.6367266108032 1266.12231831123 890.6392508048343
650.8397879248262 1091.0899047979203 767.5147032129515
769.182126013535 1248.1283318752824 877.9815870337061
-326.40307785225406 1581.317914205034 1108.239439026712
-278.79287243017916 1614.0743702217098 1131.1962373493782
-241.68381899065417 1609.1609018192084 1127.7527176009783
-243.88293194101712 1755.7460424938336 1230.4843900949097
-212.75908645860127 1667.3036112488085 1168.501034623711
-187.04491036353627 1608.3419904187917 1127.1787976429116
-193.94067501129408 1847.4641193405264 1294.7634253983751
-160.2801307695749 1711.524826871321 1199.4927123593102
-135.34895786954482 1644.3740920371351 1152.4312757978446
-116.81078988922349 1646.011914837969 1153.579115713978
-97.49303428180352 1635.3660666325493 1146.1181562591114
-4.148462819569848 1478.9539891529214 1036.49944426838
35.18392390862564 1765.5729792988363 1237.3714295917096
144.2987323388751 1881.0394867576194 1318.294143679108
136.13933837218696 1546.1047239871073 1083.560880829846
177.3458332271004 1784.4079415084252 1250.5715886272426
209.05050830540506 1713.1626496721549 1200.6405522754435
224.04948474632585 1680.4061936554788 1177.6837539527774
257.4751153375146 1780.3133845063408 1247.7019888369093
264.02458099726897 1693.5087760621493 1186.8664732818438
828.0247070459986 1831.0858913321886 1283.285026237042
309.4480667454647 676.4208167443594 474.05788536305755
808.2910658895083 1746.7380170892477 1224.1712705561765
317.3298597017888 678.0586395451933 475.20572527919086
754.9343415199037 1595.2394080121212 1117.9960783138451
750.6234593756739 1551.8371037900256 1087.5783205363125
709.7335000974588 1436.3705963312427 1006.655606448914
762.6413097886219 1511.7104451695975 1059.4562425910462
403.5926999298062 791.8873242031423 554.980599450456
856.2507037551738 1663.209054246724 1165.6314348333776
416.43874670892285 800.8953496077282 561.2937189891892
825.6250736601851 1572.309888800448 1101.9263194879788
397.7366477419419 750.1228427818804 525.7106815890565
858.8220020030881 1604.247433416707 1124.3091978525783
310.2461378188406 574.056891692247 402.3178906047256
620.5291967094113 1137.4679351790742 797.1748217545846
708.8836900176831 1252.934442637857 878.0975358419831
643.8103921910192 1098.9790993594797 770.2005837254519
673.2825392325788 1130.097732575322 792.0095421319847
668.5945673158742 1103.8925677619811 773.6441034738518
757.5889484917059 1230.8238348266007 862.6016969741834
-262.95076095773874 1524.2160955511724 1064.2585654166653
-269.1115501025706 1793.9670882549572 1252.6077144333856
-226.82022681454671 1634.9041928612362 1141.544690393131
-212.6635869866479 1830.863120691645 1278.3697560922074
-112.27783386367153 1584.0696592817994 1106.0503218854208
-80.66122342960816 1673.440048961777 1168.451711681234
-71.13249929222968 1930.0724523547392 1347.6410236637064
-4.493019532158706 1603.747543248033 1119.7900774367924
15.403866658798131 1801.3462947422947 1257.7601227651498
83.99397044770217 1557.0125688282285 1087.1581580022848
117.86842392709424 1805.4458539019267 1260.6225718383523
140.9705542995898 1602.9276314161066 1119.217587622152
192.65784510830858 1742.3126428435942 1216.5408561110348
244.3580637730396 1834.962679851277 1281.2322051654098
242.55245455898338 1679.1794317852616 1172.4591403837173
271.684868647093 1744.7723783393733 1218.2583255549564
689.6714977981062 1563.5718634836396 1091.7380765194087
754.3319893795614 1670.1604016340711 1166.161752422672
370.5134842751387 810.8928017752069 566.1924266794416
766.985990323659 1659.501547819028 1158.7193848323457
358.3374623444113 766.6175628511814 535.2779766888553
777.799396011523 1645.5630466762793 1148.9870579834574
764.4872172005544 1582.4298356179468 1104.9053422561399
780.5449952611162 1581.6099237860203 1104.3328524414994
756.0312009280489 1500.438652425307 1047.6563607920912
470.788588956382 924.8605464129761 645.7685109144693
798.0711876949996 1552.09309783667 1083.723219114442
375.5613237190899 723.1622357590824 504.93601651290953
812.7246818842448 1549.633362340891 1082.0057496705203
449.8418854373928 849.4286578757476 593.0994479675445
860.1371964931387 1608.6670142395915 1123.2250163246354
688.0341697230454 1217.5690704106999 850.1473747411231
600.2850714607508 1043.7477620423037 728.7795340373399
702.8183491504047 1201.170833772172 838.6975784483134
863.0701535524868 1450.4240306777967 1012.7344820990214
862.0306810051851 1425.0067638880785 994.9872978451664
827.6520648192821 1346.2952280231443 940.0282756396796
-242.79076777992435 1620.4758777726206 1127.2683485120367
-228.95636465166768 1798.6132969603912 1251.1879187385373
-93.39217555387587 1570.4003820562427 1092.433814946062
-86.03600362873932 1787.1205602385994 1243.1931077561824
-57.05104446207716 1549.8776379101864 1078.1573667632854
60.32222901213744 1932.4215887926794 1344.2703608902405
162.3703245929625 1637.714982855308 1139.260564985569
191.2979073781323 1732.119605927168 1204.9322266263412
245.86860139865698 1704.2086738885312 1185.5162570977652
707.3924749308314 1605.69950198746 1116.9893058204377
324.63121700566427 728.1469623020844 506.52838152491216
790.2525603023976 1751.8214403073823 1218.6376168818067
354.7788368135049 777.4015482526199 540.7918571635759
799.5753159994667 1732.119605927168 1204.9322266263412
365.2359375553197 782.3270068476735 544.2182047274423
798.7267340208016 1691.8950274008973 1176.9503881880992
748.642922543548 1551.5194574418708 1079.2994826179076
783.7820921828834 1590.1022164364572 1106.1392052015274
722.9806566251833 1436.5920902239545 999.3513727943589
384.3938744936417 756.0578943407212 525.9443510534883
830.5336712937925 1617.1922387092516 1124.9841168027924
382.37422755072873 737.1769697263493 512.8100187253339
880.2367321783328 1680.4022906791056 1168.9555772057442
399.03927868432817 754.4160748090367 524.8022351988661
865.3979744533415 1620.4758777726206 1127.2683485120367
636.5945376842211 1108.2281838870506 770.928201869934
868.4368984304276 1461.2193831992222 1016.4831106136907
834.2552390395405 1380.770226146681 960.5194337372067
811.5224265280416 1321.6647230060382 919.4032629708101
-334.3035865951138 1541.894153557771 1068.6151876257259
-333.10040826956276 1817.2323952645156 1259.439328273177
-272.2545598253676 1692.3028049975749 1172.8564346062738
-259.5179939288958 1734.21997015293 1201.9072739287215
-202.51822669782382 1592.8522759034968 1103.9318942530151
-138.98882028237122 1694.7685205949485 1174.565307507594
-67.69851824346829 1407.9236061004592 975.766426653981
55.96590831032633 1795.0409548881512 1244.0594721612927
109.99982341969967 1689.0151842010764 1170.577937404513
167.07354184764682 1904.3543463717244 1319.819504119833
164.24226317222974 1658.6046918334657 1149.5018382882274
206.05265206775584 1694.7685205949485 1174.565307507594
223.61274111134276 1683.261847807204 1166.590567301432
478.6119824852813 1114.503450012973 772.4105513968466
715.710484605376 1626.550389067606 1127.2864905710614
331.9509738716319 745.4680156060225 516.6492404992182
773.9586930796677 1717.7818661704378 1190.5147879199183
356.27737466699386 781.6318443675054 541.7127097185848
801.0910985890392 1737.5075909494285 1204.185771130482
350.6724898878463 752.0432571990194 521.2062349027394
804.5398834678234 1706.2751933826933 1182.5400477137562
353.0384473300197 740.5365844112748 513.2314946965772
771.6171497962072 1601.0713278947428 1109.6281372574167
732.3931785498291 1487.6484104155466 1031.0199837966757
726.2857110554698 1444.9093400610668 1001.3995201737878
272.5398480394658 536.7040950283712 371.9646681874195
751.2746204292072 1464.6350648400573 1015.0705033843515
383.2258405296836 739.7146792121503 512.6618703961371
860.0261183960262 1643.8103982492228 1139.2486008803046
405.1182230821308 766.8375507832624 531.4594723106621
784.7327123969003 1471.2103064330543 1019.6274977878727
809.3205153697835 1386.5540709232193 960.956194842537
889.903877942191 1499.155083203291 1038.9947240028378
944.3650268319174 1564.90749913326 1084.56466803805
835.2128327683012 1361.896914949481 943.8674658293324
-372.26800281185797 1635.0985818087404 1128.99142059054
-300.2029343685154 1461.4670766443498 1009.1035545892295
-250.13925715405628 1809.5529851018723 1249.4474755302454
-140.53913205079726 1715.7425984253769 1184.673936553234
-88.85193910509885 1497.674594308962 1034.1038678786024
-39.67076127576171 1561.0377502220335 1077.8544161350046
-25.067251293531918 1777.4599580809659 1227.2881069328466
-4.442484547645673 1591.4849809854575 1098.8774068556136
14.00861428506084 1644.1504612248934 1135.2414989128831
46.587006093485925 1496.0287980514797 1032.9674900018126
74.22526670801871 1748.6585235750244 1207.4014940890274
176.12500371888262 1780.7515505959307 1229.560862686426
225.4689015600209 1699.284635850553 1173.3101577853372
526.2614055203204 1226.9411099531112 847.1697071467011
645.5498812635656 1468.8731598030206 1014.217255034783
345.492524073672 776.8158335316814 536.3703578447256
787.2900389891739 1749.4814217037656 1207.9696830274222
348.7846853995492 766.118157858046 528.9839016455927
821.5541635482673 1784.0431431108955 1231.8336184400055
359.487208212896 771.8784447592343 532.9612242143565
808.4153164325046 1716.565496554118 1185.2421254916287
384.38481335266295 807.2630642951053 557.3933485653346
768.4482908648059 1596.4223697579046 1102.2865404859826
264.24854097212204 543.112764969184 375.004699340592
759.9085023848503 1545.4026857759509 1067.0588263055029
794.8655904839159 1583.2559996980456 1093.1955174716652
397.7495791448866 784.2219166903521 541.4840582902791
793.0120993419409 1547.8713801621745 1068.7633931206874
368.7484198874511 712.6297794898687 492.05162064992834
844.5456482648976 1616.1719248476932 1115.9230750074587
449.8418854373928 852.5224613758708 588.6437401770505
740.892896061878 1390.6978375726076 960.2393058872735
692.237615792916 1208.014452992064 834.1013615636199
747.9138609730246 1282.898182707512 885.80655495755
843.5547176327019 1422.790864593514 982.3986744846721
874.430431882705 1450.7694009707143 1001.7170983900966
883.0976964454217 1441.7175215545612 995.4670200677534
-307.3944640961486 1584.337684856317 1089.8637989878025
-321.04792854927103 1755.706503603126 1207.7481828616783
-254.1810206783521 1480.5277273462307 1018.4530664488202
-293.6752682720454 1829.8564732531877 1258.7558489609514
-249.06347758578863 1668.3743171263868 1147.6724872336456
-261.62814527254636 1894.9436688349085 1303.5292447592024
-197.71129252439766 1558.7971397546291 1072.2944917758307
-181.9973644117708 1574.4510222363087 1083.0627768412328
-162.19735721418704 1742.5242867764484 1198.6801533329187
-128.40625734137592 1569.5076909263046 1079.662265767948
-4.991478243037253 1790.3098227731548 1231.5517603746725
12.802667509770318 1504.420495344584 1034.8888699696972
29.32537628191107 1480.5277273462307 1018.4530664488202
54.63338668388999 1756.5303921547934 1208.3149347072258
100.2266124457573 1866.9314580782186 1284.259682010588
102.82708554221074 1582.6899077529822 1088.7302952967077
186.21719432014947 1885.0570062149004 1296.7282226126326
191.16329942076476 1576.0987993396434 1084.1962805323278
266.4760853309144 1853.749241251541 1275.1916524818284
690.0331503926516 1571.9793565813068 1081.3625213045905
364.15790408188946 819.7691089090148 563.9180863197419
801.3620152269862 1782.8948258081487 1226.4509937647451
336.7963825716377 740.675807948949 509.50990914718386
796.5437508203219 1731.813735604773 1191.3123793408015
348.7562467737051 749.7385820172899 515.7441794482062
817.7163555477396 1738.4048440181118 1195.8463941051812
374.5890739705869 787.637455393988 541.8147643433902
835.3904357906576 1737.5809554664445 1195.2796422596336
776.0939869936864 1580.2182420979802 1087.0300397600652
757.2705963394063 1510.1877152062555 1038.8561328885294
791.325736557588 1546.4388114796188 1063.7932140926187
780.4737024443938 1495.357721276243 1028.6545996686748
414.2366396788347 785.9896782906534 540.6812606522952
586.1298099947787 1080.941779787565 743.5784213582928
650.7267794551208 1178.1606288843127 810.4551391328954
642.1652250748423 1141.9095326109493 785.5180579288062
775.7022329559584 1355.2966674927932 932.3067859256034
795.4080702330178 1366.0072186644688 939.6745599177206
886.9765625542233 1497.8293869312452 1030.3548552053173
405.8532181258421 679.708055125565 467.5702725766704
995.4520004472994 1653.5443231963745 1137.4709540137908
946.1040960205802 1546.4388114796188 1063.7932140926187
-278.0856353108738 1621.7071299660847 1111.4054096580437
-257.1811020404366 1724.816688076848 1182.0695379425074
-175.1999537557701 1681.0982354378846 1152.1079475498948
-168.86930524143727 1816.377975679206 1244.819283859111
-119.94899021460562 1702.5450235249232 1166.806086233063
-22.908682432144445 1628.3061416851738 1115.9279138682493
43.07632411614403 1386.6173374735445 950.2911971694666
129.09616672023873 1695.1211353409483 1161.7182689965819
150.12823225153244 1717.3927998928732 1176.981720706026
209.9498651766998 1733.065452725709 1187.7226682052644
733.069809143556 1672.0245943241373 1145.889504260862
256.9234659954637 579.0632783500465 396.8497444455476
762.8492381550792 1699.2455176653789 1164.5448341279603
355.15347127687716 781.9828887120287 535.916748909372
782.1438162193836 1702.5450235249232 1166.806086233063
346.8400036595638 746.5132007219262 511.60828877951656
794.4637577596521 1690.9967530165177 1158.8917038652032
383.20932462681384 806.7291826586119 552.8761396976433
827.8643958285796 1723.991811611962 1181.5042249162316
827.8875377419615 1687.6972471569734 1156.6304517601004
795.6918540914875 1588.7120713706406 1088.7928886070154
770.6677924492653 1507.8741778118022 1033.3922120319958
368.32261339797367 713.5181421264818 488.9957677284882
786.9238983323639 1509.5239307415743 1034.5228380845472
397.3024374278132 754.7619653707872 517.2614190422736
739.1393034084771 1390.741719797975 953.1177623008452
854.1769791997081 1577.1638008622351 1080.8785062391555
750.8385916789855 1361.0461670620753 932.7664933549197
806.1814513926591 1435.285048901825 983.6446657197334
766.7427542774398 1341.2491319048088 919.1989807243027
847.2199348802832 1456.7318369888635 998.342804402902
889.903877942191 1504.5746719522576 1031.130959926893
406.83710471523807 682.1728364608099 467.51387273001126
925.5174054980871 1539.2194834774741 1054.8741070304727
897.7151811468584 1469.104983962155 1006.8224997970375
-486.65731497715535 1726.0512986611145 1178.4934935714664
-253.98324998254498 1705.404752026412 1164.3966814474059
-214.8763332260174 1560.0530637181078 1065.1551240940191
-160.7575630634397 1544.361688275734 1054.441546879733
-149.85041891088485 1613.7340849683337 1101.8068356165768
-23.071155357195117 1641.8133883915289 1120.9785001052992
32.99716796996337 1669.892691814724 1140.1501645940216
71.6754104869903 1694.668547776367 1157.0663391428943
113.83078058251706 1496.4617000832245 1021.7369427519126
122.94362919734046 1408.0944804866986 961.4025868609332
166.72836571961386 1518.7599704487031 1036.961499845898
278.99821310769306 1683.1064816609337 1149.1721243534205
475.7883129720938 1113.2617945431493 760.1001097293478
686.4166244471975 1567.4858205066005 1070.229976458681
258.3874173686572 583.0584769639937 398.09397438347145
741.741273798361 1654.2013163723504 1129.4365873797356
312.44514245244255 688.7687957336695 470.26965245866177
812.8384136582257 1771.4737012574597 1209.5064802443999
346.8400036595638 747.4049881762242 510.3045988909939
815.3910957689309 1737.6133647765478 1186.3877083609405
384.38481335266295 810.1704899457193 553.1589077481381
809.6434569730224 1688.061652853262 1152.555359263195
353.1321411172904 728.4101652722981 497.3355317368581
812.5113273635674 1658.3306256992907 1132.2559498045478
794.45245868013 1588.132367141303 1084.3267885827415
801.4439132637053 1569.9634061027648 1071.9215939135684
376.8387431875222 730.8877508684624 499.02714919174537
780.4737024443938 1498.9392856793888 1023.4285602067998
312.63142617270546 594.620543079427 405.9881891729454
621.6485956306171 1171.0721251203158 799.5711836767174
797.8870736666729 1474.9892915831342 1007.0762581428895
731.726336618066 1327.9858795440537 906.7069558195781
727.4165969462499 1296.603128659306 885.2798013910059
838.4185837055891 1468.3823966600294 1002.5652782631902
856.3349851423021 1474.163429717746 1006.5123856579271
903.5646830860404 1529.4961746987483 1044.2918421504096
450.6200579433592 756.4894686954932 516.5071962255805
972.6364588326628 1619.5151180260505 1105.7539430113138
462.5240791781979 763.922225483986 521.5820485902424
871.5045189235925 1427.9151652560129 974.9355265000313
-290.0127932695198 1591.6761440803593 1082.678185041834
-213.2815793035389 1687.5901351002665 1147.920091257342
-176.37839816357902 1531.3164773178314 1041.6207785441438
-161.2003994629887 1738.027664860735 1182.2283350430832
-135.68598216702873 1664.4384820954613 1132.1720449294608
-115.24168972653243 1639.633139590313 1115.299138149588
-96.27254061277743 1630.537847338425 1109.1124056636347
-61.85566102429658 1692.5512036012963 1151.2946726133166
39.557435785950155 2004.2716744159952 1363.3308678137173
73.45681688798275 1738.8545096109067 1182.790765269079
101.9171113338726 1574.3124043267553 1070.8671502959232
148.04592502987407 1504.030600562168 1023.0605810862837
282.1539284351859 1827.3268978792696 1242.9707994506252
584.852547918961 1370.0817510343663 931.946884474971
775.7448152999149 1773.5819891181145 1206.412834760901
277.0527973768747 625.9214758799127 425.7596810787888
728.7802430530077 1627.2304683377388 1106.8626847596518
334.5485757914043 738.3723619032523 502.25019181421186
838.2277720335642 1828.9805873796129 1244.0956599026167
374.0506558803694 807.0004761674965 548.9319005718598
819.2665287336121 1747.9498018627944 1188.9774977550323
336.18977559284895 709.4327956472458 482.5651339043603
788.649766552489 1646.2478975916858 1119.7985799575542
393.57017541756966 812.7883894186978 552.8689121538301
846.5008450421229 1729.759217359019 1176.6040327831256
817.5878396921358 1636.3257605896265 1113.0494172456051
841.4950293920862 1650.382121342544 1122.610731087533
376.8387431875222 731.7576039018794 497.7507500062458
760.2630886620872 1461.8615183034156 994.3766395605002
587.89193705265 1108.798809980136 754.2189330603114
755.8930171579007 1399.021317290373 951.6319423848225
665.2884975967738 1208.8470247509015 822.2729904057982
632.4354489373446 1128.6430839842546 767.7172584842097
715.815191262702 1255.150330760512 853.7690830615607
792.049893820695 1365.1206825333368 928.5723031189964
836.2364291627825 1417.2119017941484 964.0054073567292
381.74799668564054 641.6315261331733 436.4458553727082
959.2447278849412 1599.1177468319038 1087.740057075796
379.0197319103503 626.7483206300843 426.3221113047845
923.9258433701244 1515.6064270645707 1030.9346042502243
-272.91569280211695 1708.6310399247902 1157.8756277793957
-217.80636965448446 1893.236040846897 1282.975562369902
-106.18294920526922 1800.5196278277222 1220.1451019477643
-81.37259139714023 1704.491914343577 1155.0706965105503
-22.247185523009577 1586.9407478371234 1075.41064847534
14.436304711181316 1704.491914343577 1155.0706965105503
48.688290196712465 1572.8677208609986 1065.8738821612653
216.54514889952807 1793.8970268977812 1215.6572119176117
267.5993819005202 1735.1214436445543 1175.8271879000065
677.6806831650001 1589.4242231858514 1077.0936072366471
729.0916306035564 1668.895434345144 1130.9482875984795
747.6663164248082 1671.3789096938717 1132.6312463597867
334.1739413280321 738.4200036884267 500.3997383620257
771.9122837397696 1686.279761786239 1142.7289989276303
361.78669994986546 781.4669097330435 529.5710235580182
789.8132382020348 1687.1075869024817 1143.2899851813995
352.2547881794536 744.2147795021251 504.3266421384093
833.4098989585318 1741.7440445744953 1180.315077930159
405.5814727344843 838.586842753785 568.2790750680851
827.8875377419615 1693.7301878324229 1147.777875211552
372.08888817659005 753.3208557807941 510.49749092986923
844.0282751344283 1691.2467124836949 1146.094916450245
358.9345625022061 711.9295999686626 482.4481782414149
844.4461642647037 1658.1337078339898 1123.6554662994813
764.5632192540672 1471.8730566793977 997.4335592014368
733.0017291215739 1384.123594357679 937.9690163019136
782.6977340783935 1450.3496036570893 982.8479166034406
591.1147458127286 1075.3448259991776 728.7211436460441
743.1695678355318 1327.8314864531799 899.8219510456156
795.9789478599744 1397.3687962175609 946.944796362219
352.93278239107525 614.2462362520321 416.2518002966626
785.8132804835243 1355.9775404054294 918.8954836737646
871.8520997163901 1479.3234827255815 1002.4824354853586
409.788764483426 689.5783218301116 467.3015493896495
933.4532460596998 1557.9668687686312 1055.776129593422
414.0215541184301 685.4391962488984 464.4966181208041
1006.5902396127324 1653.166757136534 1120.289548776867
-269.17444760762606 1577.2120340499253 1064.8057098119343
-262.96183460662525 1771.9807297943985 1196.2977443919683
-246.4992133937426 1796.016015652227 1212.5244209997172
-209.72862795796306 1663.4075419538624 1122.997929370758
-166.3785429761191 1447.9187721940198 977.5173804736991
-118.96103826031865 1696.5596603784536 1145.3795522779976
-87.02401469475609 1825.0241192737442 1232.108341043552
-67.20419644261631 1843.2577844072694 1244.4182336425338
-41.00915280008894 1625.2826057655825 1097.2590630274321
-5.021339824794954 1811.763271903908 1223.155691880656
14.134818017358686 1670.8667685993953 1128.0337945248868
47.09951441134606 1523.3398416099647 1028.4355725876696
70.41794714511327 1670.8667685993953 1128.0337945248868
146.88338573312757 1688.2716307723058 1139.7841465511876
163.916708636705 1669.2091626781657 1126.9147133795248
197.18975119486572 1496.8181468702917 1010.5302742618778
680.857311367336 1598.7609110259095 1079.35376470164
749.7058284926451 1718.1085373544377 1159.9276071677036
285.4705177727375 646.466309279528 436.44164669117646
770.2555414381383 1723.9101580787412 1163.8443911764705
341.2919961321045 755.0394971200641 509.74146171238687
807.154228947329 1765.3503061094802 1191.8214198105202
362.553197195522 784.0476007415814 529.3253817562216
826.6298513665064 1767.8367149913245 1193.5000415285633
322.0839108826595 681.2760336253486 459.94235074377826
832.6176842256815 1742.1438232122664 1176.1542837754523
379.1566186372721 784.8764037021962 529.8849223289027
855.4028615769828 1752.0894587396438 1182.8687706476244
338.1511104637802 685.4200484284225 462.74005360718326
839.4838252927843 1684.1276159692318 1136.9864436877826
366.02978059817997 726.8601964591616 490.717082241233
868.4768339417323 1707.3340988664456 1152.6535797228505
373.00648478222536 726.0313934985468 490.157541668552
716.8317696830878 1381.6145353448373 932.7541346592194
811.4750003612639 1534.1142800979567 1035.7096000325225
718.8131587512188 1333.54396362918 900.3007814437217
680.3052694303535 1239.0604261190952 836.5131561580882
619.925736760562 1108.9383613025748 748.6652862471719
874.2564984196638 1536.6006889798011 1037.3882217505654
848.1794138552325 1465.32363436693 989.2677325
420.4377836732258 720.2297727742433 486.24075765978506
873.8036433083685 1484.3861024610699 1002.1371656716628
442.2570219334934 745.0938615926867 503.0269748402149
928.4933457086919 1551.5191422708672 1047.4599520588235
510.5265782064217 846.2078227876898 571.2909247072963
999.5335228603146 1643.5162708991077 1109.568955626414
-219.44699487380288 1742.5343886496835 1171.995692984097
-168.56254901029934 1823.852660120002 1226.6888253233549
-41.113714637927 1631.3440990882275 1097.211205907969
32.54023389322798 1654.5778909368898 1112.837815147757
51.32770803369214 1662.0458954596743 1117.8606538319746
116.69081024571547 1808.9166510744333 1216.6431479549199
180.23708050603173 1649.5992212550336 1109.4892560249452
555.9382350269499 1340.0919226996375 901.3204972234842
683.3280221913751 1606.4507506789462 1080.4684102939104
810.4634643762747 1859.533126173305 1250.6868323701722
337.0748036778092 764.2257961649326 514.0038253515969
752.8507287229495 1686.9392438689554 1134.603449446033
348.41005093617696 771.6938006877169 519.0266640358144
792.3753486989976 1735.066384126899 1166.9728542998796
370.21816965208694 801.5658187788544 539.1180187726846
833.2180874064645 1784.0233026651522 1199.9003523408612
374.98090354587 794.09781425607 534.0951800884671
840.1437241877595 1759.9597325361804 1183.715649913938
396.77318803541357 822.3102757865887 553.0703484510668
905.5778638643743 1857.043791332377 1249.0125528087663
406.02666588939985 823.9698323472074 554.1865348253374
903.1061230758004 1813.8953207562895 1219.9917070777315
371.0381698423968 737.6728911950327 496.1448433632678
843.6029828725273 1660.3863388990555 1116.7444674577039
298.4903491236758 581.6745744968705 391.2233241818343
706.5114562623355 1363.3257145482999 916.9471064632721
747.4688685121313 1414.771967927481 951.5488840656598
724.1741021353173 1345.0705923814937 904.6690563462959
644.8110814600742 1175.7958231983816 790.8180461706979
739.9263091230325 1325.1559136540689 891.274819855049
769.5720633338141 1354.198153464897 910.808081404784
850.0983718051313 1470.367112708209 988.9411276037239
415.11578641153943 711.9497645054421 478.843954562074
875.2673010023524 1488.6222348750152 1001.2191777207
442.2570219334934 745.9706739981264 501.7257752346206
962.7166581306468 1610.5996420804931 1083.2588762295868
528.0274893104615 876.245864006698 589.3464056148603
985.420089355479 1622.2165380048243 1091.072180849481
-455.8273058938055 1841.7751274119726 1234.079973116253
-318.45851821524946 1565.1350203176166 1048.7174873031217
-259.1316805134897 1521.9359645551347 1019.7719940229931
-259.5179939288958 1752.8847626699423 1174.519054251373
-197.71142256349356 1724.639226209858 1155.5931547989812
-145.7858988483071 1579.257788547659 1058.1804370293178
15.032266780365587 1781.1302991300267 1193.444953703765
63.74640552571019 1516.1207070486469 1015.8754853122066
119.3589862620212 1578.4270374753035 1057.6237929277768
213.24750703811395 1772.8227884064725 1187.8785126883556
292.75065968410917 1904.9122089109846 1276.3849248333643
588.0962415748621 1456.3066298390563 975.7971100012593
658.1757927997078 1588.3960503435685 1064.303522146268
721.4475606194063 1698.0551918944843 1137.7805435496714
295.494966260803 687.0311368379347 460.34467197435333
721.8585787126481 1658.179140421424 1111.0616266757065
312.5536181768177 709.4614157915312 475.3740627159586
776.9212143928913 1742.9157498016773 1167.839325032882
314.69294923267597 697.8309007785552 467.5810452943855
796.5437508203219 1746.2387540910988 1170.0659014390455
377.8831421086519 819.120557342447 548.851084119362
839.4187801499545 1799.406822721846 1205.6911239376655
398.0988484875694 844.0430895131096 565.5504071655901
859.5529851425922 1802.7298270112676 1207.9177003438292
389.9667862224953 809.151544474182 542.1713549008708
903.150041173049 1854.2363934973039 1242.4296346393671
380.675554826819 773.4292483628988 518.2356585346106
847.7464613685007 1704.7012004733278 1142.233696361999
401.9232368484006 800.0132826782723 536.0482697839205
801.4439132637053 1579.257788547659 1058.1804370293178
329.14841636605047 642.1705789307418 430.2858904911429
631.2591709026832 1219.5425742177608 817.1535410620928
795.2542683173057 1506.982445252737 1009.7524001952563
327.0640454324154 613.9250424706576 411.35999103875105
703.1770738809312 1307.6021878874355 876.157815825432
620.6932357879614 1133.1444626927969 759.2625545018356
618.5357687409195 1109.0526815944895 743.1198755571484
805.4099780478887 1418.9228315830624 950.7481254319172
853.9362877049286 1478.7369087926527 990.8265007428645
422.37305540474813 725.2456861662841 485.9503006452364
917.7133741278845 1562.6427671005504 1047.047554998499
463.410583605507 782.5675101588083 524.3587436515609
989.5001200260898 1657.3483893490686 1110.5049825741655
465.52423536746187 773.4292483628988 518.2356585346106
976.8512190132575 1609.9955782248096 1078.7762687863324
-226.03040472001697 1799.0132449869732 1200.883151835115
-201.61612792240646 1760.7540636326503 1175.3442591007577
-74.6145957055856 1570.2898781948245 1048.2049887492822
-20.912586495807645 1498.7618434889162 1000.4583632024398
77.47371367453435 1844.757918345403 1231.4187844522817
272.63464374745104 1914.622510383732 1278.0550233584997
239.12864613534077 1557.81405818798 1039.8770889446002
269.68914613452176 1638.4910275655743 1093.730841014876
633.7215061807841 1571.121599528614 1048.7601820695943
678.4856106737574 1639.322748899364 1094.286034335188
706.9762543643204 1665.9378315806323 1112.052220585176
305.85694210308026 711.9534617239246 475.2454821871745
833.9708830217266 1917.9493957188906 1280.2757966397483
260.5833444284475 592.1855896582177 395.29764406222927
757.6648258569379 1701.7018489335862 1135.925533358597
314.3183147693037 697.814199049501 465.8071957418685
793.89113128857 1742.4561942892783 1163.1300060538908
374.0506558803694 811.7600217786805 541.8686806246288
837.0935203711457 1796.5180809856045 1199.2175718741787
374.5890739705869 795.1255951028878 530.7648142183865
860.3451998754425 1806.49873699108 1205.8798917179242
372.7505934015843 774.3325617581471 516.8849812105835
867.5419750336098 1783.2105396449701 1190.3344787491849
372.08888817659005 756.8664137485648 505.22592148402896
865.9242607350767 1743.2879156230679 1163.685199374203
381.8896798715333 761.0250204175129 508.0018880855896
851.1916154021152 1679.2453729212664 1120.9353137101698
410.05164936676147 800.9476444394153 534.6511674605713
718.9818349790779 1390.638070096264 928.2832315618642
771.1423693330433 1462.997826135962 976.5850504290187
327.5066219485621 615.4737870043274 410.8430570309686
617.8487250173621 1150.2706046310607 767.8323619916616
848.3211654028992 1496.2666794875474 998.7927832415035
922.5390344138078 1599.4001248774616 1067.6367549602064
379.31325937837636 652.0695256910712 435.2715631247019
977.2354536832285 1665.9378315806323 1112.052220585176
432.4181560395336 731.0830524010862 488.0149285543533
960.2367079551428 1610.2125022167268 1074.8542681242639
472.0245737775339 785.1449390974122 524.1024943746411
978.3633726030613 1614.371108885675 1077.6302347258245
-392.7532541874365 1835.246691890747 1220.4448287014327
-316.6789046506653 1750.3124076017923 1163.9632622188801
-272.9243737100568 1847.7370278155931 1228.7509414194553
-179.04502621356835 1565.4554359140673 1041.0327939921478
-187.40721255523985 1815.262154410993 1207.1550483525969
-143.48522711477256 1557.9612343591596 1036.0491263613342
-141.4153952242555 1746.9816513551666 1161.7482988274073
-102.27736946438576 1744.4835841701972 1160.0870762838028
-65.72352844545435 1811.0987091027107 1204.386344113256
-44.48060581631269 1771.1296341432028 1177.8067834155843
65.7373891503488 1567.1208140373801 1042.140275687884
95.14008974881904 1791.1141716229567 1191.0965637644201
248.4699493574401 1511.3306469064 1005.0396388807171
495.2719005721872 1262.356617471131 839.4711253681362
634.0569860675923 1573.7823265306315 1046.5702024708294
698.1069601452967 1688.6934170392171 1122.986439476636
732.7422386721563 1728.6624919987253 1149.5660001743079
304.78501356767225 710.2837695929252 472.34094323154363
740.3028610344643 1704.5145092106893 1133.5075155861311
344.39456054377683 783.5604070186901 521.070137843942
785.4384631684093 1766.1334997732642 1174.484338328375
373.13592551874433 829.358305409793 551.5258844766911
821.9331091956603 1806.1025747327724 1201.063899026047
375.5836503716824 816.0352804232904 542.6660309108004
843.2942131146357 1811.9313981643672 1204.9400849611243
368.71163034134133 783.5604070186901 521.070137843942
879.7544608302752 1849.402405938906 1229.8584231151915
389.5664096452648 810.2064569916954 538.7898449757232
878.0625400293532 1806.9352637944287 1201.617639873915
380.675554826819 775.2335164021258 515.5327293652604
873.7737650070072 1761.1373654033257 1171.1618932411661
394.41065298207536 786.8911632653158 523.2851012354147
857.0938851473503 1692.8568623474994 1125.7551437159768
756.822984188503 1465.532748515297 974.583892247968
733.0017291215739 1392.2561110895322 925.8546976355697
650.5050331926974 1169.0954425656118 777.4521504069019
744.1082818264451 1313.9833392938287 873.8030579359623
368.15360319500303 644.5013337220681 428.5954162499587
886.5585728532069 1538.809385941062 1023.3130868603665
373.50744418380935 642.8359555987553 427.48793455422236
990.4083729290833 1690.35879516253 1124.0939211723723
453.5717177115472 767.7393148472181 510.5490617344469
966.1885883763524 1622.0782921067037 1078.6871716471828
508.5264740802457 846.8447757045778 563.1544422819225
985.420089355479 1627.9071155382987 1082.56335758226
-191.44764328464183 1856.5480214486229 1229.9424555869282
-42.703054573065586 1702.321984642159 1127.7694181897205
-24.266491877210758 1743.1710430395467 1154.8314659327648
-4.943240303274814 1794.0239524730293 1188.5209539394116
77.8928681218267 1859.0489842076468 1231.5993156528289
91.82279233777236 1730.666229244428 1146.5471656032614
117.60078445405361 1831.5383938583855 1213.3738549279217
104.34488220064064 1384.699714246144 917.3481898203358
144.21540081799466 1667.3085060158267 1104.573377267111
223.34028970486628 1863.2172554726862 1234.3607490959967
266.06732437055535 1737.3354632684914 1150.9654591123299
291.18213899904964 1773.1825961478316 1174.7137867235726
594.914334394428 1518.0843947274102 1005.7140600017046
603.5283163680416 1499.744001161236 993.5637528517665
725.645696245703 1757.3431653406813 1164.220339639535
759.5670990474375 1794.0239524730293 1188.5209539394116
305.4996325912776 712.7743863217659 472.20511878169003
761.6403641126437 1755.6758568346654 1163.115766262268
365.2558676117846 831.9869445018975 551.1821152562885
769.8852262739853 1733.1671920034516 1148.204025669162
362.6461605443218 806.9773169116601 534.6135145972818
785.1753813985285 1727.3316122323963 1144.3380188487272
364.46944030966324 792.8051946105255 525.2246408905113
811.9032061007177 1746.5056600515784 1157.040612687299
369.88711906719044 786.9696148394702 521.3586340700765
866.682917738245 1824.0355055813143 1208.4032747302197
357.53628346682575 744.4532479360665 493.1920129497651
907.1964123252579 1869.0528352437416 1238.2267559164316
400.71111034402 816.981167947755 541.2409548608845
856.0090974442171 1727.3316122323963 1144.3380188487272
384.3938744936417 767.7955670202881 508.6560402315047
805.2382295284993 1592.2796232451144 1054.867575290091
789.073963628354 1529.7555542695209 1013.4460736425744
779.0335362733474 1481.4036075950619 981.4134457018282
714.8720882439106 1263.8198475599966 837.2666199684702
863.5310774544223 1500.577655414244 994.1160395404
403.987973955286 696.1013012616075 461.1593850090189
955.7684741714651 1633.1286816425022 1081.9296230331354
476.2011092676547 806.9773169116601 534.6135145972818
1008.843731395021 1695.6527506180955 1123.351124680652
477.52486012451783 796.1398116225572 527.4337876450455
1022.2158267073717 1690.6508251000482 1120.0374045488506
-237.5020124534113 1611.6452433695836 1063.6543656302058
-163.25059479009195 1584.9375024126564 1046.0277785249928
-80.3450598884828 1696.7761676697896 1119.8391120280728
-61.43261302510745 1696.7761676697896 1119.8391120280728
-43.414075070364426 1732.6646945806606 1143.5248384507029
165.4630926804475 1696.7761676697896 1119.8391120280728
593.9342448814223 1517.333533115434 1001.4104799149219
640.0956240301408 1592.4490545567921 1050.985256148334
685.0260604976038 1660.8876407589185 1096.1533856054425
306.76819432926874 734.4628763155016 484.73114539336154
700.6229979596485 1656.7145562343985 1093.3992313702531
328.3674413466481 767.0129356067569 506.21354842784007
739.9412084399188 1707.6261874335412 1126.9999130395656
339.27073073759954 773.6898708459886 510.6201952041434
789.8822451382447 1780.2378581601874 1174.9221967318638
315.4422181594204 702.7474339291504 463.7995732059209
775.3227945663076 1707.6261874335412 1126.9999130395656
374.43390450319765 815.4207160911876 538.1617375560389
820.0416153265484 1766.0493707768198 1165.5580723322194
386.7357908043612 823.7668851402274 543.670046026418
900.7481512508086 1897.9188417516484 1252.5893461642092
368.74682762927944 768.6821694165648 507.31521012191587
904.3639525187117 1865.3687824603933 1231.1069431297308
380.675554826819 777.0283384656045 512.823518592295
827.5030029829956 1671.7376605226702 1103.3141866169353
393.15855567102113 786.2091244195483 518.8826579097121
820.8370852837634 1624.9991138480473 1072.4676591828124
399.4064871298258 782.8706567999324 516.6793345215603
815.3047602394328 1582.4336516979445 1044.375285983879
312.63142617270546 600.924171530865 396.5982098672958
740.892896061878 1410.5025692877248 930.9041314940694
587.9564723087842 1059.1288523231494 699.0043448911089
826.1582444613003 1462.2488173917714 965.0556440104198
923.0187739012824 1605.8029250352558 1059.7985497009404
408.34233535121126 704.4166677389584 464.9012348999968
926.0074343937931 1584.1028855077523 1045.4769476779547
512.6049130753061 869.6708149099462 573.9657426135032
991.9800702015939 1669.2338098079583 1101.6616940758217
505.5263178909817 843.7976908579229 556.8899863553279
1003.0618812365235 1660.8876407589185 1096.1533856054425
-410.7997100477327 1669.4828747955903 1097.647908376931
-183.59360433605852 2000.3713725028244 1315.1997460732596
-140.3369174723069 1739.6713440062156 1143.7952678882734
-115.18357490569203 1656.113642564995 1088.8579351366752
-42.78670404333604 1709.590571487376 1124.017828097698
110.21393499813217 1720.4530726747348 1131.1596813554058
139.88893879345483 1621.0194079596822 1065.784255381004
140.31400481116157 1440.5347728466454 947.119616637552
215.95811155199578 1990.3444483298779 1308.6072661430678
667.7676548611811 1707.9194174585518 1122.919081442666
637.0763050488666 1586.7607503687818 1043.2599489528488
707.0570493779288 1716.275187602674 1128.412814717826
275.74277467551315 660.941418400056 434.5543020651413
721.0946019302579 1707.0838404441395 1122.3697081151502
328.3674413466481 767.8952762448185 504.87408798718695
752.9607018435538 1739.6713440062156 1143.7952678882734
324.99720484896267 741.9923887980401 487.8435148341915
771.366486930597 1740.506921020628 1144.3446412157894
331.1768656210542 738.6500807403913 485.6460215241276
819.6594353113016 1807.3530821736044 1188.294507417068
362.553197195522 790.4558556339481 519.7071678301185
846.7821027828488 1825.735776490673 1200.3807206224194
375.37273312115303 800.4827798068947 526.2996477603102
914.6119090756891 1929.3473262777868 1268.5030132344011
358.33703662128676 747.8414278989255 491.6891281268034
911.6474205926878 1882.5550134707032 1237.7381068935063
410.1155547704613 838.0837454554439 551.0214474985294
870.4687105767207 1760.5607693665208 1157.5296010761729
395.2453845227782 791.2914326483603 520.2565411576344
778.2564249788533 1542.4751686049347 1014.1431625945017
375.1355172296125 736.1433496971547 483.99790154157967
823.905021423393 1600.9655596137893 1052.5992955206204
457.6576710917104 880.6981731904665 579.0394872018444
