# .PCD v.7 - Point Cloud Data file format
VERSION .7
FIELDS x y z
SIZE 4 4 4
TYPE F F F
WIDTH 858
HEIGHT 1
VIEWPOINT 0 0 0 1 0 0 0
POINTS 858
DATA ascii
-24.190125882045933 211.0107723782774 141.38760179139751
-15.574771985229798 222.64128739125334 149.1806192129706
-17.086911366365165 290.762875324398 194.8254355393273
-12.72165768990174 349.74620146163306 234.34716674873368
-9.975199329751364 396.26826151353674 265.5192364350261
-5.547289869587155 397.0990125858921 266.075880536567
-1.1875721360562632 429.4983044077536 287.7850004966635
3.57577241510562 423.6830469012657 283.8884917858769
7.882112823685613 401.25276794766927 268.85910104427165
13.402092512042431 434.4828108418862 291.12486510590907
18.757161516332257 446.11332585486207 298.91788252748216
26.184534231195197 491.80463483441036 329.5333081122336
30.136204664375143 467.7128537361031 313.3906291675465
33.797439267877586 446.9440769272175 299.4745266290231
40.5245276298565 466.8821026637477 312.83398506600554
42.48486688597816 433.65205976953075 290.5682210043681
42.611382212190605 390.4530040070488 261.6227277242395
49.464627921212 411.2217808159343 275.5388302627629
52.95516574169982 402.9142700923801 269.97238924735353
49.38690114799613 346.42319717221136 232.12059034256995
33.83293712005622 220.14903417418708 147.51068690834782
-952.8438062840601 3049.0904096727895 2035.3387122642312
-932.3968325158589 3090.6764763622714 2063.098378279837
-791.9852890346436 2943.4618002815064 1964.8291605845918
-20.377220952567413 162.18566008897818 108.26269746086335
-18.248053743888644 261.16049880994433 174.3307025780056
-14.40182529450778 245.35779346794135 163.78202949207534
-15.09680908873607 317.71754950763926 212.08384835922976
-13.054052546407485 359.30361619712085 239.84351437483573
-9.243266464884911 367.6208295350172 245.39544757795693
-5.477658615994011 392.5724695487061 262.05124718732054
-1.1898691808068556 430.8316509030292 287.59013992167803
3.5126705489566974 416.69238822860547 278.151853476372
8.012665417038583 408.37517489070916 272.5999202732508
13.299590848470405 431.6633722368188 288.14533324199016
18.896879665429704 449.96124158019074 300.3595862888568
23.707618830947006 445.80263491124254 297.5836196872962
30.02914887515889 466.59566825598336 311.4634526950992
36.875644703056025 488.22042293451375 325.8984790232143
37.8565427147236 436.6537002395566 291.47649316386287
41.7523691810475 426.67304423408103 284.81417332011745
44.668057940973256 371.77943620396536 248.17141417951754
51.863306654242095 395.067633550075 263.71682714825687
49.38690114799613 346.8277961902764 231.51561457015393
-1203.5560908424006 3110.093645286724 2068.2220667875913
-15.915237444100123 271.4566340999925 180.51951640502136
-18.297964942630365 385.5350355469219 256.3820125629598
-13.446882831368821 370.5466324371063 246.41467730133283
-9.975199329751364 397.19268241011173 264.13438443311406
-6.057919062603546 434.6636901846506 289.05272258718145
-1.20365144931041 436.32906830796344 290.1602042829178
3.5196818674176886 418.0099089515222 277.97790562981817
8.714385606310803 444.6559589245276 295.69761276159943
13.197089184898378 428.8348667530557 285.1765366521043
18.722231979057895 446.3213370478405 296.8050944573357
25.12299905966026 472.9673870208459 314.524801589117
28.10214466926634 437.16175736961986 290.71394513078593
36.435901069459106 482.95965576072285 321.16969176353496
40.01977372699352 462.1424292193124 307.32617056683085
43.217364590908815 442.15789173955835 294.0363902179949
46.50987037202932 427.16948862974283 284.06905495636795
50.88063347553014 388.0331027318911 258.0432351065643
-895.1429538576931 2871.1052473592536 1902.0753556539653
-781.9148346671503 2912.787960009649 1929.6896900856432
-21.108710935480087 168.39815910759847 111.56191110397822
-15.414500614681604 167.56450485459058 111.00962441534467
-12.782093118357329 352.63574902234734 233.617269291994
-9.72425091894001 387.6492276486797 256.81331021460335
-6.12755031619669 440.16944558817823 291.6073715985173
-1.1714928228021166 425.16366903403576 281.66621120311333
3.6528969181765256 434.33386581712284 287.74136477808247
8.747023754649044 446.83867961224155 296.0256651075858
13.863349998116549 451.0069508772811 298.78709855075357
20.328990693678534 485.18677525060554 321.4308527847293
23.088389980884955 435.16752007013076 288.293651466716
31.099706767321415 484.3531209975976 320.87856609609577
33.23205459611012 441.00309984118616 292.1596582871509
39.44291212372154 456.00887639532857 302.1008186825549
45.00791453629487 461.01080191337604 305.4145388143562
46.781857918064574 430.16559455208323 284.9799313349147
48.565271049917236 405.1559669618459 268.411330675908
52.19086438047941 398.48673293778256 263.99303716683954
49.50533496369876 348.46747775730773 230.85583584882622
-20.899713797505036 166.92338098079583 110.16616940758217
-12.380773089236108 108.50019763751729 71.6080101149284
-15.644567788035062 170.26184860041172 112.36949279573382
-17.428649593692466 297.95823505072053 196.64661239253417
-14.62537368625283 403.9545819735259 266.60212996634885
-10.644395091914978 424.8200045961254 280.3729011422966
-5.698157585705634 409.7969003078537 270.4579458956142
-1.1967603150586328 434.8354074549731 286.9828713067516
3.701976147403465 440.67772578930095 290.83868723601694
8.959171718847623 458.20468079228453 302.4061350238131
13.402092512042431 436.50464126478107 288.0845330008274
18.128429845393747 433.16617364516514 285.8812096126757
23.88454135953616 450.69312864814873 297.44865740047186
32.063208870267694 499.9355260374835 329.9476773757086
36.62436262671493 486.5816555590198 321.13438382310204
40.30820452862951 466.5508498413243 307.91444349419214
42.810421421502895 439.008491979493 289.73702554194114
46.328545341339144 426.48923840593335 281.47456283637246
51.46319874631147 429.8277060255492 283.6778862245241
50.215937857914525 353.87756767928715 233.5522791440742
46.85542612475711 306.30440409976035 202.1549208629133
-1465.6348706406882 2767.4310717332305 1819.5244607329305
-960.1208133076489 2797.51184425207 1839.301900523506
-32.07788563776438 235.63271806424245 154.92327835950678
-14.172107972835905 391.88561975932527 257.6560906049953
-6.057919062603546 436.1712015231722 286.7728769633423
-1.180681001804486 429.48658540787454 282.37789034321446
4.010474159687088 477.9500522437826 314.2415433391414
8.779661902987288 449.54043375376756 295.56285020359803
14.196480404725634 462.90966598436285 304.3528234438537
24.45953957745092 462.07408896995065 303.80345011633773
29.97562098055076 467.9231280708361 307.6490634089496
36.62436262671493 487.1413994023169 320.2846499418172
40.5966353302655 470.4298591140727 309.2971833914975
44.19402819748303 453.7183188258286 298.30971684117793
47.144507979444924 434.5000474943478 285.67413030831034
51.46319874631147 430.3221624222868 282.92726367073044
53.28272346793714 407.7615830331572 268.09418382779893
49.62376877940139 350.10676903871484 230.18742422919624
33.40312266843823 203.8807915165786 134.04709191389946
74.780366301793 341.7509988945928 224.6936909540364
-1441.557676565186 3012.3610175671997 1973.0387983619346
-19.95922667661731 159.77810451411693 104.65159969095515
-24.872393154313762 308.68125950633066 202.18031563331127
-19.933383548260526 286.93136046252414 187.9345481361132
-18.297964942630365 387.3155098954772 253.6842442770274
-9.766075654075236 390.66164820990895 255.8759008150579
-5.593710705315918 403.2096668890281 264.09461283267217
-1.210542583562187 440.8537229263855 288.750748885515
8.763342828818166 449.2190687124649 294.2298902305912
13.658346670972497 445.87293039803313 292.0382336925607
18.338007069039918 439.1806537691696 287.6549206164998
26.582609920520802 502.7572817433732 329.2963948390788
30.4573720320239 475.98817522791904 311.76314253483497
34.99102913049779 465.9497602846238 305.18817292074357
40.95717383231049 475.1516406493111 311.21522840032736
45.00791453629487 462.60362197019197 302.9965163827131
46.50987037202932 429.1422388258743 281.07995100240834
49.26477083870205 412.41154725371547 270.12166831225596
49.897960296818184 382.29630242382956 250.3967594699817
49.74220259510401 351.3445230153357 230.1239364931998
43.66363960399709 286.0948258839162 187.38663400160556
-1218.3790038755333 3166.5481570853326 2066.139823162867
-18.969812467521763 401.9950053956519 262.2975707797345
-14.292978829747085 396.13257823363193 258.47239787253005
-11.041730075699624 442.1945059352171 288.5273278577079
-6.1159451072644995 441.3570163406428 287.98087458525015
-1.3001273288352901 474.0191105290395 309.2925522111036
3.793123287396354 453.08187066468264 295.63122039965907
14.632112474906746 478.2065585019109 312.0248185733925
20.43377930550162 489.9314128259507 319.67516438780143
26.449918024078933 500.8187775554163 326.7790569297525
36.31026003128856 484.0689856639308 315.84999148059694
42.18300473926344 489.9314128259507 319.67516438780143
45.577634973463155 468.99417296159385 306.0138325763569
45.51258270323337 420.4197764762859 274.31954277380567
49.364699379957024 413.7198597196917 269.9479165941434
51.31737711051323 393.62010944990914 256.8330380551567
47.49378342890911 311.5461291816302 203.28061735429424
-24.804988294816976 308.54667785995775 200.55659446047508
-17.47746934045351 300.16225726593717 195.10668700231003
-19.127894238084444 405.8059567505966 263.7755209751901
-14.26276111551929 395.74465203777186 257.23563202539196
-10.121585902724656 405.8059567505966 263.7755209751901
-5.883840928620686 425.0901241168439 276.3103081289698
-1.2381071205692957 451.9202700177098 293.750011995098
3.765078013552388 450.24338589890573 292.660030503465
9.008128941354986 462.82001678993663 300.83489169071265
13.658346670972497 446.8896176612975 290.480067520199
18.233218457216832 437.6667550078748 284.48516931621737
24.415308945303632 462.82001678993663 300.83489169071265
29.97562098055076 469.5275532651531 305.1948176572447
36.37308055037383 485.4579523937922 315.54964182775836
41.60614313599146 483.78106827498806 314.45966033612535
46.63568721391855 480.42730003737984 312.27969735285933
46.691195402719494 431.7976605920604 280.6702340955018
52.66234124137116 441.85896530488515 287.21012304529995
50.57123930502242 358.0147593646792 232.7110484636491
45.8340544381139 301.0006993253392 195.65167774812653
-1279.6815425901866 3006.702037220314 1946.9121344773653
-791.7615011598105 2969.7687905319576 1922.9969658796533
-744.3855958299803 2910.171960648473 1884.406580187891
-23.083406393130165 252.65698302716768 163.60149427071104
-17.379829846931422 298.8235413876136 193.49545501785093
-16.36146325323752 347.5082756586293 225.01999544210756
-14.564938257797241 404.58692963154425 261.97980145675325
-11.418152691916656 458.3080157236995 296.7655012352433
-5.767788839298779 417.17780918439314 270.1326998423368
-1.2197307625645566 445.7171361708506 288.6126028496597
4.318972171970709 517.0654536369943 334.8123603679668
8.665428383803437 445.7171361708506 288.6126028496597
14.580861643120732 477.6140310380678 309.2666120931382
18.058570770845023 433.96564858819164 281.003231023115
24.45953957745092 464.183759515029 300.57018714851563
33.13376676243022 519.5836295475641 336.4429400450835
37.189747298482395 496.9200463524361 321.767722951033
40.74085073108349 474.2564631573081 307.09250585698254
45.577634973463155 470.05950330635847 304.374873061788
46.41920785668423 429.76868873724203 278.28559822792045
51.863306654242095 398.7111858402148 258.1751155434809
53.17678325048024 376.8869946152767 244.04342500846928
42.30149551044021 259.3721187886871 167.9497067430223
-1444.8363081648088 2743.7078930045686 1769.8282396505117
-1191.0136686224598 2945.3893307751955 1899.9228116309475
-22.776650161992222 249.58077924115068 160.9920328257893
-24.872393154313762 310.0852105723387 200.02040441992003
-18.712972310611924 270.58926234225765 174.543550740418
-18.57460804111506 394.9594823008108 254.76853679502008
-15.80386454113684 439.4974664751576 283.49775477403296
-11.418152691916656 458.825270928176 295.9651512554914
-6.069524271535737 439.4974664751576 283.49775477403296
-1.20365144931041 440.3378057992019 284.03981549061814
3.9123157012332075 468.90934281670735 302.4698798545132
9.514020240597748 489.9178259178143 316.0213977691419
14.990868297408838 491.59850456590283 317.1055192023122
20.468708842775982 492.4388438899471 317.64757991889735
25.12299905966026 477.3127360571501 307.8904870203647
32.063208870267694 503.3632551025227 324.6943692345043
34.300003420559776 458.825270928176 295.9651512554914
38.57761971881357 449.58153836368894 290.00248337305476
52.13094632342467 483.19511132546006 311.68491203646073
51.46319874631147 432.77475188280334 279.1612690413518
50.44388984054705 388.2367677084566 250.43205106233887
51.400276014940815 364.7072666352168 235.2543509979547
47.49378342890911 312.60622854447155 201.64658656967546
41.89080137927089 257.1438331575492 165.87057927505563
-1276.564288396771 2867.0962744143094 1842.3417037128554
-25.074607732804118 312.9576919255056 201.10067892640322
-19.41035016069684 280.98889543849157 180.55813645542653
-14.716026828936217 409.70536550462697 263.2688995622537
-10.93716823786156 439.9915937554823 282.7302555873895
-6.1623659429932625 446.7218667001169 287.05500137075296
-1.244998254821073 455.97599199898934 293.0015268228778
9.432424869752142 486.26222024984475 312.4628828480136
14.785864970264784 485.4209361317654 311.9222896250932
18.128429845393747 436.62645728316505 280.56788269570774
24.149925152419897 459.3411284713066 295.1638997145596
30.189732558983266 474.4842425967343 304.89457772712746
37.75513197024987 505.611754965669 324.8965269751837
45.984578142869076 475.32552671481363 305.4351709500479
52.040283808079586 482.8970837775275 310.30050995633184
47.366128554857546 398.76867196959586 256.24118766428796
46.840754851936545 360.9108866560266 231.91449263286822
53.29521706618287 378.57785313569224 243.26695031419743
50.940912871329935 335.6723631136471 215.69669594525507
42.57529159788643 261.63936072266733 168.12449232825645
-22.776650161992222 250.14122577685762 160.1198525069616
-25.546441749281616 319.203786429054 204.3280272731934
-19.352235339856428 280.46137435587065 179.52831947750238
-20.8460318669655 359.6306512010714 230.20598323391448
-19.167414680725116 408.47977946725905 261.47518001978574
-16.10604168341479 448.9066442392765 287.3531359805068
-10.22614774056272 411.8486848649272 263.63167634984586
-6.139155525128881 445.53773884160836 285.19663965044674
-1.2082455388115947 443.0110597933573 283.5792674029017
4.206791076594847 505.3358096502174 323.4744495090133
9.53033931476687 491.86018805954495 314.84846418877294
14.708988722585765 483.43792456537466 309.45722336362275
20.119413470032367 485.1223772642087 310.5354715286528
25.830689174016886 491.86018805954495 314.84846418877294
32.22379255409207 507.02026234905145 324.5526976740434
37.69231145116459 505.3358096502174 323.4744495090133
41.38982003476447 483.43792456537466 309.45722336362275
52.062769993841314 438.7999280462721 280.88364699032655
50.33470393180127 388.2663470812504 248.53620203942523
47.876797811400316 315.83488103138586 202.17153094313332
37.55098058784667 216.45217180017644 138.5548892063607
-26.827134079720533 335.5800740445139 213.98601333797166
-19.64280944405848 284.9901131332806 181.72681534732266
-20.45547389287715 353.2865603634455 225.27673263469882
-18.693169369037072 398.8175251835554 254.3100108262829
-11.250853751375752 453.62331617072476 289.25747531615264
-5.930261764349448 430.85783376066985 274.7408362203606
-1.3437711790965454 493.2521188845242 314.5271804088277
3.8562251535452763 463.74130835297143 295.70931491428246
9.54665838893599 493.2521188845242 314.5271804088277
15.247122456338904 501.68377903639634 319.9037134072692
21.202229125537578 511.801771218643 326.355553005399
25.786458541869596 491.56578685414974 313.4518738091394
31.4744020295783 495.7816169300858 316.1401403083601
37.126926779397124 498.31111497564746 317.7531002078926
41.82246623721845 489.03628880858804 311.83891390960696
45.00791453629487 466.27080639853307 297.3222748138149
44.69662006512759 415.68084548729985 265.0630768231659
51.263341663801526 432.54416579104424 275.81614282004887
43.66363960399709 288.3627771940295 183.87742854669926
41.75390333554778 257.16563463210235 163.98425645246573
-1214.8343942371755 3182.268734228685 2021.401915293088
-1119.819308065779 3015.9804210607667 1915.7742820536348
-800.7130161531379 3020.2009366234042 1918.4551864505754
-19.64280944405848 285.3068520342959 181.22913723317342
-23.92167591291123 413.61052513847625 262.7286309001626
-19.009332910162435 406.0135971257287 257.90300298566984
-10.518920886509301 424.5838656013338 269.6989823322078
-6.580153464552128 478.60646480309396 304.0145586130453
3.645885599715534 438.9336185143014 278.8140572818052
9.024448015524108 466.78902122770893 296.5080263016121
14.990868297408838 493.800320828589 313.6658144420309
19.97969532093492 482.82698036573146 306.69546300998576
23.530696302357846 449.0628558646314 285.2482278344623
30.725011505064533 484.51518659078647 307.76782476876195
38.57179871835843 518.2793110918866 329.21505994428543
39.65923522494853 464.25671189012644 294.8994836634479
42.48486688597816 440.6218247393563 279.8864190405814
46.73156894319077 361.2761321617711 229.48541637810123
49.53652680219553 327.51200766067103 208.03818120257776
41.89080137927089 258.29555243341576 164.07134909275462
-23.677577179106013 409.8432547129089 259.3328104315566
-18.93029202488109 404.773028881409 256.12456947776417
-16.196694826098177 452.9401742806581 286.6028585387925
-10.87443113515872 439.41957206332506 278.0475493286793
-6.023103435806974 438.5745344247417 277.5128425030472
-1.3093155078376597 481.6714539924909 304.78289061028306
4.087598662757993 492.65694329407404 311.7340793435
8.959171718847623 463.9256635822412 293.5540472720094
13.760848334544523 453.7852119192414 287.1375653644245
18.303077531765556 442.7997226176583 280.18637663120757
24.813384634629234 474.06611524524106 299.97052917959434
29.761509402118257 469.84092705232445 297.29699505143395
38.44615768018789 517.1630348129902 327.2405772868302
41.31771233435547 484.20656690824086 306.38701108717925
42.72903278762171 443.6447602562416 280.72108345683966
47.32583301013509 441.1096473404917 279.1169629799434
47.06634293109263 398.0127277727425 251.84691487270757
50.11633211430973 387.8722761097427 245.43043296512266
50.0975040422119 357.45092112074326 226.18098724236793
44.046653986488295 291.5379853112445 184.47385484306605
47.640519215641405 294.07309822699443 186.07797531996226
36.84876825816269 189.2884310426631 119.77432894158491
54.44614238043068 218.8647483930792 138.48906783870754
1189.117823741086 2846.9318043871963 1801.4272955544623
-1456.3695716034842 3077.6373702678593 1939.8948984753624
-26.827134079720533 336.6958970221572 212.22599494040523
-23.594617261206338 343.4636537462207 216.491844084936
-24.06813515319436 417.06300812041087 262.882953531708
-18.851251139599754 403.5274946722839 254.35125524264646
-16.075823969186995 450.0558221502202 283.67896811129543
-10.560745621644527 427.214643206506 269.2817272485041
-6.5685482556199375 478.81878822748996 301.80882697555114
-1.20365144931041 443.2880654261568 279.41311896676467
9.628253759781597 499.1220583996803 314.6063744091434
14.708988722585765 485.5865449515534 306.0746761200819
17.9887116962963 435.67433911158537 274.61403867916755
24.769154002481944 473.74297068444235 298.6094401171531
31.420874134970173 496.5841496281565 313.0066809799444
37.126926779397124 499.96802799018826 315.1396055522098
41.75035853680946 489.81639290409305 308.74083183541364
43.217364590908815 449.20985255971226 283.1457369682291
47.41649552548018 442.44209583564884 278.8798878236983
54.86076914898058 464.4373051888551 292.74389754342326
46.840754851936545 362.92095432790313 228.75616037546192
43.91898252565789 291.0135391347289 183.43151321482262
37.25875505798015 215.72224557952285 135.97394148191793
-23.696918855406047 261.69178032790177 164.31193538149682
-23.07158387364265 336.21888928859875 211.1062729658713
-16.075823969186995 450.5502496260316 282.89304085099127
-1.2771568813293663 470.87582479713075 295.65513291945706
4.115643936601959 497.12969272646717 312.13950184122535
8.942852644678501 464.100633073431 291.4011022299685
15.016493713301845 496.2827937610047 311.6077480050393
18.19828891994247 441.23436100594444 277.0437486529445
24.5480008417455 470.0289258316683 295.123379083271
31.79556939722706 503.05798548470443 315.86177869452786
34.86538809232725 470.0289258316683 295.123379083271
38.43340431799558 451.39714859149404 283.4247946871774
42.56625551985934 442.92815893686935 278.10725632531665
47.05384546409984 439.5405630750195 275.9802409805723
47.06634293109263 398.8894127328212 250.4560568436408
55.24806982536105 428.53087652400745 269.06744111015337
44.767982335593615 320.1278089448119 201.0029500783359
44.046653986488295 292.18014308455054 183.45507348419548
48.46190747798005 299.8022337737127 188.24085800987015
35.943740173580856 208.33714550376646 130.81144370177418
-24.36105363376062 423.0650545473212 264.60717983620947
-20.234466632023214 434.0867894353276 271.5007536595977
-15.199510256580938 426.4563575897847 266.7282794741751
-5.918656555417258 432.39113791409585 270.4402038406149
-1.3093155078376597 483.2606835510483 302.25669841009903
4.010474159687088 484.95633507228007 303.3172482290818
9.481382092259505 492.5867669178229 308.0897224145044
14.093978741153608 466.30416833873085 291.651200220271
18.02364123357066 437.4780924777911 273.6218532975633
24.194155784567187 463.7606910568832 290.0603754917968
31.527929924186427 499.3693730027499 312.33192169043565
35.74487535952109 482.41285779043244 301.7264235006076
38.43340431799558 451.89113040826095 282.63652675891717
43.217364590908815 450.1954788870292 281.5759769399343
45.9658952799588 429.8476606322482 268.8493791121407
51.66305582882142 438.325918238407 274.1521282070547
55.57562755159837 431.54331215348 269.9099289311235
49.86063641080664 356.934645219283 223.24573689588016
44.046653986488295 292.4998874124766 182.9448437745336
43.94427203511751 272.1520691576956 170.21824594673996
-1206.7784632409077 3178.568649427966 1980.3349062402744
-1114.4913124774448 3018.154904503564 1880.3927707851578
-23.390162624268104 258.8687418092202 161.28228208365385
-20.019243270545225 252.07874202406032 157.05192714375474
-23.433478445300796 407.3999871095924 253.82129639394708
-16.529089682603924 464.2662353103064 289.2505190156022
-10.45618378380646 424.3749865724921 264.3971837436949
-6.069524271535737 443.89623595482675 276.55945419590483
-1.3001273288352901 480.3924848000611 299.2976119978626
3.863236472006268 467.6612352028863 291.3656964855517
9.465063018090383 492.27498442409086 306.70073314268603
13.78647375043753 456.62748555200153 284.4913697082157
19.909836246386195 483.787484692641 301.41278946781216
23.088389980884955 443.04748598168175 276.0306598284174
29.065646772212613 460.87123541772644 287.13534154565264
32.16410577166045 434.55998625023193 270.74271615354354
41.46192773517347 488.03123455836595 304.0567613052491
43.217364590908815 450.6862357399866 280.7898091358039
48.77643325565648 456.62748555200153 284.4913697082157
46.76655730732771 397.21498743185265 247.4757639840984
50.174884106347534 333.5587394459788 207.81618642254415
1192.294451943422 2867.077409283757 1786.2673733724025
-1508.6926509244072 2952.6088108148183 1832.4099460270086
-23.083406393130165 255.7511516705785 158.7209766198934
-23.726396925867054 412.94039771395734 256.2737363364392
-19.68118043505383 423.13645691677107 262.60148291264755
-15.98517082650361 449.47627652404 278.94816156785254
-10.790781664888268 438.43054572099174 272.0931027769601
-6.6381795092130815 486.0121553341226 301.62258679926583
-1.2243248520657415 452.87496292497786 281.05741042658866
4.087598662757993 495.3585429367019 307.4230211607902
8.959171718847623 466.46970852872954 289.49440586153315
13.78647375043753 457.12332092615026 283.6939715000088
19.59547041091694 476.6657677315433 295.8221524377415
24.415308945303632 469.018723329433 291.0763425055852
29.11917466682074 462.22135052755715 286.85784478811297
35.17949068775362 475.8160961313088 295.29484022305746
37.135465710633625 437.58087412075724 271.5657905622761
43.46153049255237 453.72463452521237 281.58472264127266
46.05655779530389 431.63317291911585 267.87460505948786
48.46534250866226 412.09072611372284 255.74642412175515
50.88063347553014 395.9469657092677 245.72749204275854
49.74220259510401 356.86207209848163 221.47113016729313
54.02570884853546 218.36560126026137 135.51923917379602
-24.233880290450845 354.6962964950796 219.27046598362162
-23.335838951778708 406.58232547877225 251.34600177499075
-20.03686441881986 431.24945401200324 266.59502698728096
-13.749059973646773 387.0187407800029 239.2519472962778
-11.982786616242205 487.3884361910806 301.2997050566312
-6.4757065841624115 474.6295766049266 293.4122782226879
-1.1852750913056709 438.9047697636956 271.3274830876469
4.108632618140967 498.44611449908064 308.13547497938197
9.04076708969323 471.2272140486189 291.30896440030307
14.170854988832627 470.376623409542 290.7831359447069
20.25913161912981 493.3425706646191 304.98050424580464
24.326847681009053 467.8248514923112 289.2056505779182
29.226230456036994 464.4224889360035 287.1023367555334
32.66666992434265 442.3071323200033 273.43079691003175
36.198065605316664 426.9965008166186 263.96588470929987
47.53096218661158 496.7449332209268 307.08381806818954
49.13908331703682 461.02012637969574 284.9990229331485
52.8621983238811 449.9624480716957 278.1632530103977
55.684813460344145 433.801225929234 268.1725123540696
37.40486782291341 217.75120360369394 134.61208463263102
-1906.195852492953 3412.8404041860904 2101.5671237328875
-827.7831362410465 3027.1076938327224 1864.0397018139759
-23.23819945825662 405.3173733514419 249.58731309801757
-13.779277687874568 388.28723161398636 239.10045120314288
-10.58165798921214 430.8625859576252 265.3176059403296
-5.663341958909062 415.53545839391523 255.8794302349424
-1.20365144931041 446.1897135213352 274.7557816457168
3.870247790467259 470.031911953773 289.4373882985414
8.975490793016743 468.3288977800274 288.38870210905395
13.914600829902563 462.36834817191794 284.7183004458478
18.233218457216832 444.48669934758965 273.70709545622935
23.132620613032245 445.33820643446245 274.2314385509731
31.527929924186427 501.53767416806573 308.8380828040596
32.16410577166045 435.9716284788619 268.463664508792
37.207573411042624 439.37765682635296 270.56103688776693
42.56625551985934 445.33820643446245 274.2314385509731
49.320408347726996 463.21985525879074 285.24264354059153
52.262627076351265 445.33820643446245 274.2314385509731
48.696915300614684 379.7721607452586 233.85702025570555
55.42702574883019 398.5053166564597 245.3925683400677
54.02570884853546 218.8373213263037 134.75617534913974
-812.4150105049258 2974.0966625571527 1824.2450607762119
-774.6591375121341 3075.5347545159666 1886.4649410377108
-26.79093240742887 392.9660537227995 241.03667899622633
-23.09174021797349 403.1951050127639 247.31095263604135
-19.720700877694497 425.3580494743535 260.90521218897385
-15.411034256175503 434.7346798234875 266.6566296921376
-11.52271452975472 469.6839383975326 288.09373129483885
-1.2564834785740349 466.2742546342111 286.0023067482339
3.561749778183637 433.02983794182677 265.6109174188351
8.844938199663773 462.0121499300593 283.3880260649776
14.965242881515831 497.8138294449347 305.3479838043301
20.99265190189141 512.3049854390509 314.2365381274014
23.707618830947006 456.8976242850771 280.2508892450701
26.76394730406318 426.21047041518386 261.4280683256251
40.205985137305 421.09594477020164 258.2909315057176
48.867095771001566 459.4548871075682 281.8194576550238
49.364699379957024 421.09594477020164 258.2909315057176
54.81132619037796 427.91531229684455 262.4737805989276
50.68967312072505 364.83616267539736 223.7824264867351
-805.8951995865716 2953.382737852324 1804.4532146209579
-23.006717335345677 255.9996594497825 156.41027575448928
-24.117650648770024 354.1328622388658 216.36754812704348
-20.943671360487585 366.079513013189 223.66669432891965
-17.46803564717629 377.17283158934623 230.44447294494753
-15.924735398048021 449.7060684334513 274.7607177420528
-11.79457530813369 481.27935976559115 294.05131841843985
-6.301628450179551 463.35938360410637 283.1025991156256
-1.2840480155811433 477.0126987747614 291.4444804891983
3.870247790467259 471.0393733875998 287.79490738826024
9.399786721413898 491.5193461435824 300.3077294486194
14.273356652404654 475.30603437842956 290.40174531750176
20.538567917324706 501.75933252157375 306.56414047879895
24.724923370334654 477.0126987747614 291.4444804891983
27.459809933968824 437.75941765912813 267.46157154017664
40.6687430306745 481.27935976559115 294.05131841843985
43.78708502807711 459.09272261327664 280.4957611863841
52.46248415886121 447.9994040371194 273.71798257035624
48.15098575688582 376.31949939118033 229.92310535909922
52.11087890915659 375.46616719301437 229.40173777325094
49.53652680219553 331.0928928883854 202.29062330913945
-23.773607913190535 264.81466539213136 161.16200852947173
-24.93979801381055 316.06911675835033 192.35465534162753
-26.093554557343953 383.5541443905386 233.42497364429937
-23.287019205017664 407.4728883614408 247.98154215663874
-18.890771582240422 408.3271292175445 248.50141960350803
-15.531905113086685 439.07980003727585 267.2170076908015
-11.690013470295623 477.5206385619401 290.6114927999184
-6.7310211806706075 495.45969654011674 301.5289191841729
-1.1990573598092251 445.91372688610505 271.3760272657556
3.744044058169414 456.16461715934884 277.6145566281868
8.404323197097495 439.9340408933795 267.73688513767075
14.0683533252606 468.9782300009036 285.41271833122573
19.42082272454513 474.9579159936291 289.0518604593106
23.221081877326824 448.476449454416 272.9356596063634
27.94156098544196 445.91372688610505 271.3760272657556
34.67692653507142 471.54095256921454 286.9723506718335
37.063358010224626 439.07980003727585 267.2170076908015
43.24601981960621 407.4728883614408 247.98154215663874
51.862912911331364 443.3510043177941 269.81639492514785
52.518422106716734 410.8898517858554 250.0610519441158
51.281842199238184 369.88629069288027 225.10693449439114
38.28154441251294 223.81110429915617 136.20789107974707
35.25646551133514 193.91267433552844 118.01218043932285
55.076792678273506 223.81110429915617 136.20789107974707
-1063.5870992263335 2676.6098341705183 1622.5473169130291
-1038.1301462205406 3002.4208075951087 1820.0522778535608
-839.8913565179901 3084.514911135163 1869.8173073818837
-24.524454394652892 360.87199681148843 218.75877563491957
-20.699572626682368 362.5822906352396 219.7955470834263
-18.53508759847439 401.06390166964 243.12290467482768
-15.229727970808733 430.99404358528477 261.2664050236954
-11.710925837863236 478.8822706503164 290.2960055818838
-5.895446137552876 434.41463123278703 263.3399479207089
-1.2610775680752195 469.4756546196852 284.5937626150968
3.8562251535452763 470.3308015315608 285.11214833935014
8.69806653214168 455.79330402967616 276.299591027043
14.093978741153608 470.3308015315608 285.11214833935014
18.268147994491194 447.2418349109205 271.11573378450936
23.530696302357846 454.9381571178006 275.7812053027896
27.888033090833833 445.5315410871694 270.07896233600263
40.6943169405921 427.5734559377825 259.192862126682
46.691195402719494 440.40065961591597 266.96864799048245
51.063484581291576 436.9800719684137 264.89510509346894
57.75934572651383 452.3727163821739 274.22604813002954
-816.1406167439853 3000.4565213394944 1811.7079410189992
-783.0326703178362 3122.015672845973 1885.1066650203395
-23.006717335345677 256.8151088165045 155.0677267633951
-25.816061187268755 327.8672889224041 197.96979783460105
-27.02339169079051 398.063418665582 240.3549764832624
-22.701182243885146 398.063418665582 240.3549764832624
-18.81173069695908 407.4799726555205 246.04079313125354
-14.26276111551929 404.05577120463374 243.97322344107494
-10.560745621644527 432.30543317444926 261.0306733850484
-6.3132336591117415 465.69139732059483 281.18947786428976
-1.2610775680752195 469.97164913420323 283.773939977013
3.5126705489566974 428.8812317235625 258.9631036948698
8.58383301295783 450.2824907916046 271.88541425848604
13.248340016684391 442.5780375271094 267.2333824555842
19.316034112722043 473.39585058509 285.8415096671916
30.136204664375143 481.9563542123068 291.0104338926381
34.237182901474505 466.54744768331653 281.7063702868344
36.630711807770645 434.8735842626143 262.5813506526823
44.112639563601846 463.9792965951515 280.15569301920044
49.68305840910734 469.11559877148153 283.2570475544684
49.464627921212 423.7449295472324 255.86174915960189
48.47854348312314 380.0863610484267 229.50023560982473
51.400276014940815 371.5258574212098 224.33131138437824
41.23788184821947 276.50426715910316 166.95625248192204
-23.236784508699134 259.6562153846503 156.16545652646772
-25.074607732804118 318.7858485910558 191.72788722061384
-22.45708351007993 394.1975547093701 237.0828712943074
-17.54707653245763 380.4863354151311 228.83651055363586
-14.474285115113856 410.4796276212789 246.8754246738549
-10.560745621644527 432.76035897441716 260.2757608774462
-6.2900232412473605 464.46755359234476 279.3454700902492
-1.2610775680752195 470.4662120335743 282.953252914293
3.4495686828077745 421.619993297848 253.57559277565053
8.600152087126952 451.61328550399577 271.61450689586957
13.504594175614457 451.61328550399577 271.61450689586957
18.233218457216832 447.3285294745461 269.03751916440973
24.99030716321839 484.1774313278133 291.19961365496454
27.83450519622571 445.6146270627662 268.0067240718258
32.47820836708682 443.0437734450964 266.46053143294984
37.135465710633625 441.3298710333165 265.42973634036593
40.043207869542634 421.619993297848 253.57559277565053
48.413783194276135 457.6119439452253 275.2222897199134
48.565271049917236 416.4782860625084 250.48320749789872
47.16831257817386 370.20292094445193 222.6517399981322
50.334371673617156 364.20426250322237 219.04395717408838
37.646962023854556 235.66158161973212 141.73432523029248
23.805587071432747 106.26194953035194 63.90929574020461
-1000.5560088501753 2993.0366914016918 1793.0009380709246
-42.18028391660626 273.65397092494686 163.93445091562768
-23.390162624268104 261.6440787840401 156.73983551494183
-22.115345282752624 388.60579570219727 232.7971983221923
-18.81173069695908 408.33633279082983 244.61692362331905
-15.531905113086685 440.93461145900534 264.14516542518066
-10.560745621644527 433.2139665112795 259.52005552473975
-5.732973212502206 423.77762268628135 253.86714342420086
3.9543836119991562 483.8270833908152 289.84022042763013
8.485918567943102 446.0817080908225 267.2285720254746
12.710206282931253 425.49332156355376 254.89494562429883
19.316034112722043 474.390739565817 284.1873083270912
22.99992871659038 446.0817080908225 267.2285720254746
29.922093085942635 479.5378361976342 287.2707149273852
39.44291212372154 469.2436429339998 281.1039017267973
39.717653334017896 418.6305260544642 250.7837368239069
42.88336975822586 405.76278447492126 243.0752203231721
49.86434208623189 428.0668698794624 256.4366489244458
51.45159871465154 345.71332377038743 207.1021433197428
-45.68751790712728 277.37465380644846 165.50619754484384
-40.46133817705804 262.7759878166354 156.79534504248363
-22.007452483551102 219.83873490542047 131.17519062377715
-24.265749418842695 309.14822096074755 184.46511181468662
-25.977324915663136 383.85904102626154 229.04418050323588
-22.35944401655784 393.30523666672883 234.68061447535132
-19.167414680725116 416.4913532387849 248.51549786145281
-15.924735398048021 452.55864568420543 270.03642757316624
-10.665307459482591 437.95997969439236 261.32557507080605
-6.2087867787220254 459.4286061499998 274.13565228015926
-1.2427012100704804 464.5810764993456 277.2100708104041
3.737032739708422 457.7111160335512 273.110846103411
9.448743943921263 497.21338871186896 296.68138816862097
12.556453787573215 420.78507852990634 251.07751330332346
19.1763159636246 471.45103696513996 281.3092955173971
23.088389980884955 448.2649203930839 267.4744121312956
29.547397823685753 474.0272721398129 282.8465047825195
32.7923109625132 448.2649203930839 267.4744121312956
39.22658902249455 467.1573116740185 278.7472800755265
40.12459650342382 423.36131370457923 252.61472256844584
50.9635560400366 437.95997969439236 261.32557507080605
42.399306021541044 307.4307308442989 183.44030563793837
-1559.0417563524159 2972.6284181401893 1766.7043577422216
-22.007452483551102 220.06734385306203 130.7913000526341
-25.074607732804118 319.78535903648077 190.05610788898395
-25.33806188641863 374.8021949997463 222.75393290214248
-22.310624269796797 392.8545943001928 233.48290673458513
-17.902760516223665 389.41604205248865 231.4392926712627
-10.539833254076914 433.2575832107159 257.49537197862344
-5.721368003570016 423.8015645295296 251.8754333044868
-1.2725627918281814 476.23948630701705 283.0405477701535
3.6879535104814827 452.16962057308837 268.7352493268967
8.779661902987288 462.48527731620067 274.8660915168639
12.992085857754326 435.83649739649394 259.0280825261152
20.60842699187343 507.1864565363539 301.43307434005516
22.86723682014851 444.43287801575417 264.13711768442124
26.710419409455053 428.9593929010857 254.9408543994704
34.80256757324197 476.23948630701705 283.0405477701535
40.30820452862951 480.53767661664716 285.59506534930654
40.53153967282974 428.09975483915974 254.4299508836398
42.52071969684552 403.17025104330503 239.61374892455234
46.166986059797864 397.1527846098229 236.03742431373811
42.28087220583841 306.8907881075904 182.3925551515249
-1556.7875028007206 2971.404727563966 1758.9664422638975
-1051.0283096692153 3153.8367583324457 1866.9597483050056
-1042.195431290355 3227.842204776263 1910.7683535858325
-24.872393154313762 317.5349969507974 187.96948079796647
-26.73281758658846 395.84308562972035 234.32509801372512
-20.55311338639924 362.2824761958962 214.45840492125714
-18.81173069695908 409.61154078205846 242.47553620550687
-15.682993684225659 446.6142640039671 264.3798388459203
-10.100673535157043 415.6352399112064 246.0413529144114
-5.616921123180299 416.4957683582275 246.55075530139774
-1.244998254821073 466.4064182854531 276.0960937466066
3.6528969181765256 448.33532089800934 265.39864361989305
8.616471161296074 454.35902002715727 268.96446032879754
13.888975414009556 466.4064182854531 276.0960937466066
19.385893187270767 477.5932880967278 282.71832477742925
32.72949044342792 448.33532089800934 265.39864361989305
34.90012699795471 416.4957683582275 246.55075530139774
39.79904196789908 420.79841059333313 249.09776723632953
43.064694788916036 408.75101233503733 241.96613381852052
48.36935757437736 381.2141020303611 225.66525743495703
42.16243839013578 306.3481271395227 181.3472497671438
37.646962023854556 236.64532293081106 140.08565642124873
-20.803919925856903 208.46272301295883 122.91172895221351
-25.10560260305699 372.1318030644554 219.41267317089356
-21.236589841053846 374.7160516968475 220.93637229013586
-14.836897685847397 422.9553595014991 249.37875584932576
-10.163410637859881 418.6482784475124 246.83925731725523
-6.2087867787220254 460.85767277658255 271.7263429315464
-1.25188938907285 469.471834884556 276.80533999568746
3.786111968935362 465.1647538305693 274.26584146361694
8.436961345435739 445.3521809822302 262.5841482160925
14.760239554371779 496.1757374192739 292.5502308945247
19.036597814527152 469.471834884556 276.80533999568746
22.690314291559353 441.90651613904083 260.55254939043607
27.94156098544196 449.659262036217 265.123646748163
33.29487511519539 456.5505917225958 269.1868443994759
38.14497351635959 455.68917551179845 268.6789446930618
39.79904196789908 421.2325270799044 248.36295643649754
43.15535730426112 410.03411633953885 241.76026025311418
45.4213380382415 358.3491436916978 211.28627786826786
38.42910970995065 259.2862794500025 152.87781163064574
37.646962023854556 236.8894579692714 139.672419263879
33.02148487491574 194.6800636402012 114.78533364958783
-1064.4456070617905 3104.284861981451 1823.0237232885383
-745.1141887952869 3124.9800943946607 1835.1772147771287
-22.265352317342717 223.33604979255438 131.15642898103653
-19.555709735043827 219.88684439035276 129.13084706627146
-24.872393154313762 318.18919835309873 186.8599316370752
-24.81502849885494 368.2026766850221 216.23086940116832
-20.699572626682368 365.6157726333709 214.71168296509452
-17.981801401505003 392.34711450043335 230.4099428045236
-15.682993684225659 447.53440093565916 262.81925344076427
-9.055055156776396 373.3764847883245 219.26924227331588
-6.1159451072644995 454.4328117400624 266.87041727029435
-1.2174337178139643 457.0197157917136 268.3896037063682
3.751055376630405 461.3312225444656 270.92158109982444
14.042727909367594 472.54114010162084 277.50472232281084
19.036597814527152 469.95423604996967 275.98553588673707
26.228764863342487 511.34470087638897 300.29251886391756
27.94156098544196 450.1213049873104 264.3384398768381
32.35256732891627 444.0851955334576 260.79367152599923
39.29869672290354 469.95423604996967 275.98553588673707
40.93848284223566 433.7375793268527 254.7169257817041
44.515295034437415 423.3899631202479 248.64018003740898
45.96712897728791 396.6586212531854 232.9419201979799
42.16243839013578 306.97928079594345 180.2767904140888
-2143.2493782605493 3427.703122292046 2004.917032056279
-2048.215467765398 3324.1210586619663 1944.3302670482826
-866.6573357130723 2981.43706481912 1743.8890528134946
-19.555709735043827 220.11188521391884 128.74687564199223
-24.60277371632662 315.06211020815834 184.28474356598886
-25.10560260305699 372.89542906828603 218.11235402878683
-14.806679971619602 422.96009315615777 247.39595711598506
-9.055055156776396 373.75861293187006 218.61724373718678
-6.2087867787220254 461.80336701743755 270.1159939939837
-1.2059484940610024 453.1715283815976 265.067096909984
3.4635913197297574 426.41282861049376 249.41551594958494
8.730704680479922 461.80336701743755 270.1159939939837
14.734614138478772 496.3307215607974 290.31158232998246
19.106456889075876 472.16157338044553 276.1746704947833
23.619157566652426 460.9401831538536 269.61110428558374
27.94156098544196 450.5819767908456 263.5524277847841
32.35256732891627 444.53968974575764 260.0181998259843
39.37080442331254 471.2983895168615 275.66978078638334
46.691195402719494 444.53968974575764 260.0181998259843
44.06848669344342 380.664083840542 222.65636140438656
-27.853182049494364 279.95665409598945 163.09589764116845
-19.86246596618177 223.7925105273496 130.37604163290936
-28.512255567140166 365.49896506976404 212.93075525374772
-24.81502849885494 368.9552200586034 214.94428485425595
-18.693169369037072 408.7021524302562 238.09987526010087
-15.411034256175503 440.67251107702043 256.7250240648022
-10.45618378380646 432.031873604922 251.69120006353157
-6.1971815697898345 461.4100410100567 268.8062016678517
-1.2472952995716653 469.1866147349453 273.33664326899526
3.4846252751127316 429.4396823632925 250.18105286315037
8.877576348002016 470.05067848215515 273.8400256691223
14.60648705901374 492.5163359096111 286.927968072426
20.60842699187343 509.79761085380795 296.99561607496724
25.388382852543995 495.97259089845045 288.94149767293425
29.70798150751013 479.55537970146344 279.37723207052005
32.289746809831 444.12876606585985 258.73855366531046
34.82801929754571 417.34278990235464 243.1336992613715
39.717653334017896 421.66310863840386 245.6506112620068
43.42734485029638 413.8865349135153 241.12016966086324
45.367557729758076 392.2849412332692 228.53560965768668
39.79376207608321 290.3254190625076 169.1364864426932
38.057656155023885 240.20972172433665 139.94030723532356
29.66089128145087 175.40494068359834 102.18662722579381
-1386.4891200410125 3061.026194567993 1776.1305234043446
-29.40058105224405 295.80982157170206 171.640756994712
-19.09557538833691 215.37030868816905 124.96651605755349
-24.670178575823407 316.5684055416461 183.6857223978497
-20.921335502547493 311.37875954916007 180.67448104706529
-21.28540958781489 377.1142754539827 218.81687149033462
-16.55906546644087 362.4102784752724 210.2850209964454
-10.100673535157043 417.7665023951231 242.4049287381459
-1.240404165319888 467.06813932374007 271.0117215705979
3.9824288858431216 491.2864872886748 285.0641812075919
9.677210982288962 512.9100122573665 297.61102016919364
14.196480404725634 479.17731330620745 278.0379513890949
19.525611336368215 483.50201829994575 280.5473191814153
22.99992871659038 449.7693193487868 260.9742504013165
31.74204150261893 512.9100122573665 297.61102016919364
32.16410577166045 442.8497913588054 256.95926193360395
39.310710164611976 417.7665023951231 242.4049287381459
46.26691460105284 400.46768242016975 232.36745756886452
38.651811696003584 306.18911355667404 177.66323969628087
43.91898252565789 297.5397035691974 172.64450411164015
28.93032745678459 171.25831775203804 99.3709645758859
-25.686750811461085 382.6905020621416 221.16052909917266
-20.8460318669655 369.7032678292635 213.65508127906497
-19.602139549772488 429.4445453005028 248.18014125156026
-14.716026828936217 421.65220476077593 243.67687255949565
-6.1159451072644995 456.2848293817842 263.6914000797828
-1.2174337178139643 458.88227622835984 265.1924896438043
3.849213835084285 475.3327729233388 274.6993902159407
9.399786721413898 498.7097945425194 288.2091962921345
14.990868297408838 506.50213508224624 292.7124649841991
19.59547041091694 485.72256030964127 280.7037484720268
26.803763081257248 524.6842630082756 303.2200919323498
32.277320448700195 522.0868161617 301.7190023683283
34.67692653507142 477.9302197699144 276.2004797799622
38.72183511963157 464.9429855370363 268.69503195985453
43.15295376067549 292.64567804752005 169.12275754642616
-785.8700660516264 2925.070632714017 1683.6231150806943
-28.025115272022106 282.5401559303021 162.62552163446114
-26.074279646725103 294.67378225859727 169.60943974146255
-24.265749418842695 312.0075341561618 179.5864656086074
-21.502483710951587 320.67441010494406 184.57497854217982
-19.479078957656284 345.8083503564127 199.04166604953986
-16.1243405973935 353.6085387103167 203.53132768975505
-10.288884843265558 426.4102966800878 245.43483633176345
-5.744578421434397 429.01035946472246 246.93139021183518
-1.3391770895953607 505.27886781400645 290.8303040272725
3.863236472006268 477.5448647779032 274.86706263984075
8.844938199663773 469.7446764239992 270.3774009996256
15.04211912919485 508.74561819351936 292.8257092007015
21.062510976440134 522.612619711571 300.80732989441736
26.00761170260604 509.6123057883976 293.32456049405874
32.43790413252457 525.2126824962057 302.3038837744891
34.61410601598615 477.5448647779032 274.86706263984075
34.61169619631872 416.01004554154906 239.44862081147653
34.18322623009737 364.00878984885543 209.51754321004196
22.75178915707061 113.53607492904777 65.3495194297988
-1476.9340115467276 3009.555004568189 1725.265102666419
-984.4094709980582 3176.1259359250903 1820.7539754574113
-25.997590588940614 294.1018006770297 168.59754102159587
-21.138950347531758 375.6521524871795 215.34730165885253
-17.54707653245763 385.19527876283536 220.8180183291698
-14.26276111551929 409.4868729190502 234.74347894452285
-6.336444076976123 473.6860860461894 271.54648199938447
-1.2725627918281814 480.62654151939364 275.5251850323425
3.884270427389242 480.62654151939364 275.5251850323425
8.92653357050938 474.55364298033993 272.0438198785042
15.016493713301845 508.3883634122106 291.43999716417454
20.64335652914779 512.7261480829633 293.9266865597733
24.592231473892788 482.3616553876947 276.519860790582
32.86612728938959 532.6799575684255 305.3654577795276
32.5410288861721 449.3944918899746 257.62102138403145
26.473454480765227 253.32662477195478 145.22266070296752
39.06746701410266 265.4724218500622 152.18539101064405
22.925466936895578 114.51751530786997 65.64860004380724
-17.451222086565913 176.289997030873 100.65205883068057
