# .PCD v.7 - Point Cloud Data file format
VERSION .7
FIELDS x y z
SIZE 4 4 4
TYPE F F F
WIDTH 855
HEIGHT 1
VIEWPOINT 0 0 0 1 0 0 0
POINTS 855
DATA ascii
-69.8326221460645 1531.4369801498276 881.470235362248
-57.95757588891101 1662.3068069764397 956.7967806591917
-39.33616339467991 1630.2393659659454 938.3392828049737
-20.100221870554297 1501.1029143290896 864.0104400947445
-4.231156430591174 1596.4385497656945 918.8840823640412
12.452101586720747 1539.2371685037315 885.9598970024631
35.0044140927653 1859.0448910137975 1070.0360242512857
15.01629008100865 620.5483179328107 357.1775260437858
52.122095926375344 1762.8425679823142 1014.6635306886318
65.98189591126933 1637.1728667249713 942.3300931518315
140.9705542995898 1694.3742479869343 975.2542785134096
212.44807870807415 1842.5778267111111 1060.557849677498
257.1198138904067 1881.5787684806312 1083.006157878574
261.3383654674122 1654.5066186225358 952.3071190189764
-523.4068333229499 1809.7237646380056 1037.4468158438024
-393.77074783737635 1591.099417232072 912.1176703056248
-203.23227705273922 1333.4350077893646 764.4083202070585
-216.2239968374402 1525.1650902366318 874.3199914925236
-232.84904929256626 1775.889044206135 1018.0506385581319
-219.9694877187405 1826.2073463868658 1046.8962355470776
-202.0923115027617 1840.9558142674248 1055.3509794921133
-176.74735275851978 1783.6970566134898 1022.5266794702097
-154.3750733201695 1746.392108445017 1001.1411506680604
-135.88819674551908 1748.9947792474686 1002.6331643054197
-104.02552930433336 1552.9269121294487 890.2348036243558
-90.90236846906267 1615.3910113882869 926.0431309209779
-71.37391940905063 1566.8078230758572 898.1922096902717
-57.35322160435511 1646.623061017706 943.9472945692889
-40.69546728657475 1688.2657938569314 967.819512767037
-20.726903152892593 1549.4566843928467 888.2454521078768
-4.41032592113738 1665.7093135690177 954.8887279099234
14.380214163493385 1779.359271942737 1020.039990074611
33.53569741754438 1782.8294996793393 1022.02934159109
51.1739555383341 1732.5111974986085 993.1837446021443
297.4794490103126 1885.2012179091018 1080.7152113272207
-416.0216593148919 1614.3995294600636 921.7348638730798
-370.77122691323046 1638.7153911194944 935.617906470415
-224.78521209476688 1476.3201721797248 842.8990148382118
-229.50738230868228 1620.4784948749214 925.2056245224136
-247.5229757013308 1889.6898203900475 1078.910738992911
-223.3134419263413 1855.8212987929833 1059.5736439466227
-204.56846612060892 1865.3739587306168 1065.0276963955757
-184.91418082858758 1867.9792296226985 1066.5151652452903
-158.89972772945416 1799.3737627978762 1027.3451522028088
-124.15975119307845 1599.6363277382663 913.3058737246977
-109.0234038966086 1629.1627311818609 930.1638540214619
-98.27415022998021 1748.1367685869327 998.0915981584237
-72.28288958978605 1588.3468205392448 906.8601753759349
-61.00956502591832 1753.3473103710965 1001.0665358578526
-42.51484326495707 1765.505241200812 1008.0080571565203
-23.291654326906738 1742.926226802769 995.1166604589947
-4.637733351446026 1753.3473103710965 1001.0665358578526
13.980569011216875 1731.6367196037477 988.6709621102319
33.584654640051745 1787.2158319681607 1020.4036309041411
50.892075963511026 1724.689330558196 984.7043785109933
137.7095685269637 1469.372783134173 838.9324312389731
-252.05930932043594 1549.070649089479 880.8542014031041
-232.70523436657388 1644.6922940950026 935.2279175390981
-229.66401100229177 1755.0918296922887 998.0048443506549
-227.49338468584233 1892.439283427495 1076.1052729823555
-190.568668858165 1739.4446514186575 989.107327164765
-185.1720806623792 1872.445666744522 1064.7362232448295
-155.75547636029023 1765.5232818747093 1003.9365224745816
-130.22618854778912 1679.4638013697383 955.000177952187
-111.34799673022498 1665.555198459844 947.0912737869514
-95.05204694375135 1692.5031165977641 962.4147756070952
-78.01335377268325 1715.973884008211 975.76105138593
-58.259753031188964 1675.9866506422647 953.0229519108781
-42.22207011901049 1755.0918296922887 998.0048443506549
-24.30130750400733 1820.2884058324182 1035.0778326251964
-4.943240303274814 1870.7070913807852 1063.747610224175
14.835949863457827 1839.4127348335228 1045.9525758523953
32.94821074745601 1755.0918296922887 998.0048443506549
51.378958865478154 1742.921802146131 991.0845532060739
132.4618456513281 1596.8814715922408 908.0410594711011
186.29858295403065 1989.799503796755 1131.4676021390042
225.25052974252935 1793.340487694498 1019.7543308050526
251.76812075755046 1714.2353086444741 974.7724383652757
-234.09548649007942 1440.0967357441793 815.5650750853418
-232.21325712689824 1642.841472558919 930.3848107317979
-229.66401100229177 1756.8310026993947 994.9401127476165
-218.1930120459526 1816.8712895672788 1028.9425237330477
-186.2830166349679 1702.0116103417613 963.8944331522227
-176.91928598104752 1790.7668170160248 1014.1588667828602
-163.11762590760085 1850.8071038839091 1048.1612777682913
-137.6407230924355 1776.844431655356 1006.2742497427602
-111.4642263719058 1668.9459451101727 945.1684676819852
-92.22050163161083 1643.7116216439606 930.8775992968041
-79.83129413415409 1757.7011517844364 995.4329013126227
-62.85284559381382 1809.9100968869445 1025.0002152129975
-45.75626023793708 1903.886198071459 1078.2213802336726
-23.071155357195117 1729.8563810630988 979.6636672324227
-4.821496931493417 1826.4429295027387 1034.3631979481163
15.214561060351363 1888.2235145407064 1069.35118606356
33.14403963748546 1767.2727917198963 1000.8535755276914
43.33257827507409 1471.422102805684 833.3054634255668
202.90270934230333 1947.3936523235488 1102.860808483985
186.16687235801606 1621.0877454328738 918.0650966066416
217.71670203907104 1735.0772755733497 982.6203986224602
277.1747414628002 1889.0936636257484 1069.8439746285662
-396.7075289548555 1758.5648240945852 991.8723503844537
-240.17772571610564 1478.9713082281355 834.1749633248154
-216.71597407711585 1534.7158098339075 865.6161869130299
-226.3652213445075 1733.3055968044698 977.625545946044
-220.7009777016532 1839.5685529904724 1037.5603784110779
-191.42579930280445 1750.7257535562735 987.450928317361
-180.3579504316024 1827.37444326421 1030.6826107511558
-166.72201162347167 1893.571038921064 1068.0190637621606
-141.48280008375227 1828.2454511018002 1031.1738798697218
-111.34799673022498 1668.851016822796 941.271631172171
-97.5906737753256 1741.1446673427815 982.0469680131366
-85.04799256272257 1874.40886649408 1057.2111431537119
-64.27307816252019 1852.6336705543254 1044.9294151895656
-43.87414715685191 1827.37444326421 1030.6826107511558
-24.77712107022715 1859.6017332550468 1048.8595681380925
-4.904190542514743 1859.6017332550468 1048.8595681380925
15.074334691131535 1872.6668508188995 1056.2286049165803
35.11864761194915 1874.40886649408 1057.2111431537119
49.25204934635861 1674.0770638483373 944.2192458835661
192.65784510830858 1850.8916548791449 1043.946876952434
266.8333531355378 1820.4063805634885 1026.7524578026291
-373.3921135400266 1737.624826237008 976.0681140395928
-377.7844368772075 1848.3515462230089 1038.2661323451766
-210.47376670527984 1297.3335381036968 728.7452853441616
-199.0010260015436 1312.155225030957 737.0710043299484
-219.79083182508856 1558.020855236093 875.1799898588823
-222.15642074664478 1702.7502687611022 956.4781870142122
-210.3556193718882 1755.062104974961 985.8630775522831
-193.9971906367227 1775.9868394605044 997.6170337675115
-189.55637783683665 1922.4599808593089 1079.8947272741104
-58.31268892819127 625.126442755612 351.14944192994886
-161.58384475191113 1837.0173150433395 1031.8994060619277
-139.32584457985513 1802.1427575674338 1012.3094790365471
-115.41603418905366 1731.5217786787243 972.6398768101512
-101.20333503564281 1807.3739411888196 1015.2479680903542
-83.42765441445509 1840.5047707909303 1033.8583987644658
-65.30048044626523 1884.0979676358124 1058.3458075461917
-46.48819310280353 1938.1535317234666 1088.7101944355318
-26.227772186750986 1970.4124973886794 1106.830876934009
-5.108627525317465 1939.0253956603642 1089.1999426111663
15.677308078776797 1949.487762903136 1095.0769207187805
10.253818618219256 766.3684005330306 430.4886463827406
34.97177594442706 1868.4044167716547 1049.5303403847704
47.817026056350244 1626.898106251007 913.8700957340092
-382.7597029414322 1782.961608068022 997.4451885469662
-247.92486628099286 1636.3450881681554 915.4232640849543
-220.7747863044398 1566.5276977396472 876.3652048173295
-232.96280066007606 1787.3251949698038 999.8863172511927
-196.2483125585723 1638.9632403092244 916.8879413074902
-199.33044673670133 1826.5974770858395 1021.8564755892316
-182.4211491019353 1851.9062811161737 1036.0150220737455
-169.63619581928214 1930.4508453482451 1079.9553387498233
-147.54923743846294 1910.378345600049 1068.7261467103813
-122.97096089830693 1846.6699768340354 1033.0856676286737
-108.81921553036557 1945.287040814303 1088.2551763441936
-86.82641248155274 1917.3600846429 1072.6319526371437
-68.35246958327252 1974.0867143660626 1104.3666257920888
-21.398170991158786 730.4644473582646 408.6449450875236
-47.86840936226598 1997.650083635684 1117.5487207949122
-14.047745196541936 754.027816627886 421.82704009034694
-26.494691992191374 1992.4137793535458 1114.6193663498404
-5.133895017573981 1950.523345096441 1091.1845307892654
15.130425238819466 1883.3241068090022 1053.5911487441767
33.07876334080898 1768.9981299823205 989.6335766934412
46.40762818223488 1580.4911758253488 884.1768166708545
60.67260624556635 1515.9100896789791 848.0481118483017
176.93889005769446 1897.2875848947037 1061.4027605977017
233.76703062469963 1868.4879113429442 1045.2913111498065
260.38007916135047 1659.9084574377766 928.6053590877776
-289.4440172208498 1912.240713987408 1065.3902814316114
-220.03682044492638 1562.8134478407826 870.7095538972832
-231.256530147429 1775.9640801902242 989.4647976932233
-203.354215249724 1699.963649803333 947.121739454507
-191.71150945101758 1758.4927168828929 979.7307613165069
-197.37933946184896 2005.7125076816305 1117.4673760470441
-164.72809612107505 1876.424419207379 1045.4355068593427
-150.71726583481185 1953.2984177596365 1088.265266916895
-127.21334281965683 1912.240713987408 1065.3902814316114
-110.82082514756834 1982.9997353820997 1104.8131287573128
-87.4192191211628 1932.3327817908391 1076.5844232648353
-33.683894591736795 843.8668477441006 470.1539569954027
-68.86617072514504 1990.861848870399 1109.1934451268353
-26.076624146931856 891.039528673895 496.43585521253704
-49.43683692983695 2065.115142926557 1150.56309972788
-17.397091852198923 934.7179369422232 520.770946154328
-28.049789989104926 2111.4142556909846 1176.3582961261784
-5.251044299854193 1996.9768260279648 1112.600357858686
1.7843719255994686 661.2911011824888 368.4332768587162
15.375821384954167 1915.7349866488744 1067.3370887069548
32.6381483382427 1747.1363307331276 973.4036376716413
47.74014980867122 1627.4574920779082 906.7254884911339
50.43825182417836 1261.432430789318 702.797426398925
71.78631597505036 1417.801132389933 789.9170519705369
178.06118013774966 1715.6878767799312 955.8823721935518
284.18932779518195 1699.0900816379665 946.6350376356711
-365.8589718183693 1490.0053570296452 826.7406098789143
-267.62662898812243 1769.818569617372 981.9970624383349
-220.52879768460198 1567.8284067806069 869.9213107470031
-242.74541826591908 1866.0043614444032 1035.3664680056356
-195.62132114464714 1636.9072936382017 908.2502474726101
-206.758910590243 1898.3577641498591 1053.3179953328186
-198.84077185333476 2022.5248772356629 1122.2130461560614
-55.872827466760675 600.723990774276 333.31619658850593
-173.5473377662909 1978.8040627688306 1097.954225443652
-154.5593428261286 2005.03655144893 1112.5095178710976
-132.61802115781492 1995.4179722662268 1107.1725773143676
-115.89807881071685 2075.8642708851985 1151.808807425201
-90.7389363029791 2007.65980031694 1113.9650471138423
-29.32521257934849 735.3840993321195 408.0333643827271
-70.86053986417953 2050.5061984944355 1137.7386914120036
-24.90061952854081 851.6814658138935 472.56182747773624
-49.37409982713411 2064.4968591238217 1145.5015140399746
-15.722418524370429 845.5605517885369 469.1655925779989
-27.79447539259673 2094.227012961268 1161.9975121244129
-6.256081915763893 786.9746604029816 436.6587728233702
-5.1982122705905685 1978.8040627688306 1097.954225443652
1.897515720089263 703.9051129160002 390.56701346979224
15.551104346478951 1939.4553297486814 1076.1212868024836
10.312145231519706 772.9839997735953 428.8959501953992
34.35165112600045 1840.6462890536404 1021.2963519924381
49.431427257609656 1686.7490221303906 935.9053030847568
54.315430461632516 1359.717329918485 754.449324155934
76.69591614339944 1516.2378457097448 841.29590230636
79.64950717689203 1301.1314385329297 721.9425044013054
180.17115988271763 1576.5725696739732 874.773074889485
271.0950041433169 2001.5388862915834 1110.568812214105
-382.5604551139691 1704.1346266329335 941.6656382764705
-282.02802545482655 1638.4899954067034 905.3919233967914
-229.85206377424714 1422.3003432349856 785.9304890597148
-236.4211524855548 1564.9680084333256 864.7653627315508
-234.91913194511423 1671.74994189466 923.7706056024955
-240.24288818070343 1848.5528153306398 1021.4678110117646
-204.08570523263668 1709.3861971310318 944.5675354668449
-203.80657239204055 1873.0601443217656 1035.0099979001782
-196.51967334921022 2000.8483597754935 1105.6228295326202
-68.07213477391366 732.5940844847279 404.8146580572192
-177.8419250022221 2029.7319975150347 1121.583264079679
-55.33266353423845 672.2010237565962 371.4428403679144
-156.71629833002575 2034.9835680131332 1124.4851612700534
-68.66000878878413 957.5363541532764 529.1125877115865
-138.19704395849425 2081.3724407463355 1150.1185864516933
-50.473662579144666 826.2470917008162 456.5651579522281
-113.50591121942573 2034.9835680131332 1124.4851612700534
-39.400151209192025 780.7334807172966 431.41538230231725
-93.58440817310736 2072.619823249505 1145.282091134403
-38.46101007731437 965.413709900424 533.465433497148
-72.73403814630282 2106.7550314871446 1164.144422871836
-22.906524740834257 784.234527716029 433.3499804292335
-50.71249135146134 2122.50974298144 1172.850114442959
-17.52716356698172 943.5321661583473 521.3741952039215
-27.817685810461114 2098.002413990314 1159.3079275545454
-7.875712011733879 991.671562390916 547.9749194490196
-5.416431521896845 2063.867205752674 1140.4455958171122
2.175660881543341 807.8665949574718 446.408517785918
15.186515786507398 1895.8169498135253 1047.5848857251335
8.923971834968976 669.575238507547 369.99189177272723
33.99263149427978 1823.1702245898307 1007.441974591622
52.22459758994737 1783.7834458540926 985.6777456638146
53.756557865242726 1347.0278327622416 744.336629331016
66.30171758878649 1312.0173627749189 724.9906480618538
251.6735196590064 2017.4783330194718 1114.8121706354723
260.0806592829724 1922.0748023040173 1062.0943716770053
261.3383654674122 1670.8746801449768 923.2869560707665
-417.17369849946687 1702.27112866248 936.7614448311624
-386.3193869139663 1806.5275693782983 994.1338647667817
-305.98232889890636 1779.3683285195555 979.1881083129649
-196.4887206898962 1301.891352131984 716.432067431347
-219.91382613500747 1566.4749243687668 862.0326625620784
-231.5977842499584 1783.7488512387076 981.5987141926128
-210.3556193718882 1763.5984467306082 970.5099271462326
-212.18740340629267 1951.9609236541457 1074.165979971091
-190.75991039453083 1944.075982759672 1069.8268893877248
-91.82011966517148 989.1220299845289 544.314807624489
-175.38787515311856 2003.6510917401397 1102.611129350936
-64.77091734020881 787.6179849035354 433.4269371606871
-157.92958580096789 2052.7129461946424 1129.609915202992
-71.10766906553236 992.6264481598505 546.2432923282074
-138.4295032418559 2086.8810234040284 1148.4126410642455
-51.970762740390484 851.5736166031551 468.62178300354594
-115.60516033015058 2074.6155597904026 1141.6629446012314
-39.31181006298307 779.7330440090618 429.0878465773209
-95.5209098625002 2117.5446824380924 1165.2868822217804
-34.416153169818024 864.7151847606112 475.8536006424896
-72.76425586053061 2109.659741543619 1160.9477916384144
-25.616448426691882 877.8567529180673 483.0854182814332
-49.896909016324436 2090.38544157935 1150.3411257679636
-17.120689458285483 922.538084653418 507.6735982538415
-27.690028512207014 2090.38544157935 1150.3411257679636
-6.638398032838353 836.6798393580382 460.4257230127432
-5.2556383893553775 2004.52719628397 1103.0932505268654
2.8050232383928235 1042.5644071581837 573.7241993561931
16.006840046443394 2000.146673564818 1100.6826446472176
9.89219361575646 742.9366531681846 408.8387571882788
34.04158871678714 1827.554078430228 1005.7047729890915
50.917701379404036 1740.8197285910176 957.9747765720637
62.03485819926646 1555.961669842802 856.2472084509235
-281.42540146881197 1638.1326420868356 897.7446446120429
-250.66240361473444 1787.2132358527683 979.4451743679567
-239.78788271066423 1848.5993626975642 1013.0865689733331
-213.38607787252644 1790.7210145296137 981.3675397739783
-204.94941298489312 1887.1849281428642 1034.2325884395698
-92.50530051292361 895.3605072648069 490.6837698869891
-195.1442075689883 1990.6643991098058 1090.9423679172041
-67.50283376624652 727.8640754454356 398.8908217494623
-176.92165630880825 2023.1113518706263 1108.724247922903
-66.1398243807694 805.0352063360359 441.1828606819354
-160.28875588335535 2085.3744233846332 1142.8462338797847
-60.37562015979006 843.6207717813362 462.32888014817195
-138.31327360017508 2087.1283127230563 1143.8074165827954
-53.78867007904611 882.2063372266364 483.4748996144085
-116.09335779776102 2085.3744233846332 1142.8462338797847
-44.74479055483354 888.3449499111159 486.83903907494613
-96.23227783003227 2135.3602695296813 1170.2399409155912
-35.46223685279122 891.8527285879615 488.76140448096766
-72.03903071906353 2090.6360913999015 1145.729781988817
-24.466009126091947 839.2360484352794 459.92592339064504
-49.93873375145966 2094.143870076747 1147.6521473948385
-18.99047035828817 1024.271373638878 561.3306985582794
-27.806080601528922 2101.159427430438 1151.4968782068815
-7.43083507550178 937.4538513869526 513.7521547592472
-5.381975850637959 2054.6813599622355 1126.0255365770965
2.8898810842601694 1075.1341644531374 589.2049969455912
15.530070391095977 1942.4324423031806 1064.5098435844084
8.655669413786903 650.6929445548352 356.59878281698917
33.14403963748546 1781.0746231682888 976.0810349074192
52.42960091709142 1794.2287932064592 983.2899051799998
66.50583897038476 1669.7026501784449 915.0459332662364
179.54332634189237 1934.5399402802782 1060.18452142086
217.2446486883129 1906.4777108655144 1044.805598172688
-385.757331549882 1807.353391806304 986.384669957035
-279.4668735142646 1628.2858386598805 888.656417081253
-235.41110918478986 1680.0749839326206 916.9209608051311
-241.60790459082108 1864.409229818645 1017.5235740596127
-213.38607787252644 1792.4310957107687 978.2406488840531
-72.7044312100776 639.0253857382172 348.7557259488691
-209.23506520809022 1928.48732481712 1052.4949586671228
-58.52930864970485 567.0472516303412 309.4728007733097
-195.4021074027799 1995.1987661853955 1088.9035234639828
-73.68381613520404 795.2706036797044 434.0284171836201
-181.06286542917047 2072.4435930328723 1131.0608090182418
-68.22920881109872 831.2596707336426 453.6698797713998
-157.99699066046466 2057.521296937337 1122.9167879452598
-73.2415267426975 1024.3717378523345 559.063093657047
-137.61589575009017 2078.5880678957396 1134.4142294600579
-57.852227659570474 949.7602573746581 518.3429882921379
-116.58155526537145 2096.143710361075 1143.9954307223893
-42.801285338236625 850.5708774455118 464.2092011599645
-96.46940048587629 2142.6661628942147 1169.385614067568
-33.23059166244841 836.5263634732432 456.54424015009926
-73.30817471663093 2129.499431045213 1162.1997131208193
-25.769840333438538 884.8043802529162 482.8925436215111
-50.10603269200056 2103.1659673472095 1147.827911227322
-17.364573923503226 937.4713076489231 511.6361474085058
-27.59718684074949 2087.3658891284076 1139.2048300912236
-6.610593224323847 834.7707992267096 455.5861200238661
-5.322252687122557 2033.8211796091339 1109.9821662411123
2.73902269160711 1019.9828272360006 556.6677933414642
15.74742126338671 1971.4986488571922 1075.9689017598353
9.18060893349096 690.8145310109574 377.02026967274725
34.98809501859618 1881.9648722839804 1027.104775321944
48.432036037782396 1659.008212974218 905.4235192903333
69.99879269782093 1759.075375026631 960.0363664856233
166.4397562870217 1795.064442080569 979.6778290734029
244.74619041187842 1682.708330302421 918.3581409944809
-396.1180675448186 1771.2916773463717 962.6950679023329
-235.77663452820704 1375.0354538923966 747.3302486444201
-224.21862698216924 1601.7186149813667 870.5322960247781
-221.36016117407618 1709.7884941051782 929.2681558223907
-200.4282553180733 1685.1872208087007 915.8973909904139
-215.2349783205662 1985.6742017871031 1079.2117328667025
-204.25666836295866 2087.593762586795 1134.604901456321
-94.01599498045901 1015.6811403831376 552.0215766344726
-179.83584050461872 2060.356638579981 1119.8015546780607
-80.47732443716713 981.4150811487584 533.3980113327906
-163.7264037176914 2134.160458469413 1159.9138491739914
-67.34203787053507 942.7559373971511 512.3868094539698
-141.4514739255572 2138.553542986641 1162.30148575113
-50.25979112753812 825.8998892388836 448.8756765020798
-116.33745653156623 2093.7440809109144 1137.9475926643152
-42.668773618923204 848.7439287284698 461.29138670320117
-96.03467561682892 2135.0390753728584 1160.3913764894191
-34.7997171869082 876.8596696387295 476.572260796889
-74.15427071500919 2156.1258810555537 1171.852032059685
-26.153320100305184 898.8250922248701 488.5104436825826
-50.12694505956818 2106.044717559153 1144.6329750803034
-16.226446419153763 876.8596696387295 476.572260796889
-27.365082662105674 2071.778658324774 1126.0094097786214
-7.291811032929249 921.6691317144563 500.92615388370393
-5.381975850637959 2058.5994047730896 1118.8465000472052
2.762594315459151 1029.7390108382676 559.6620136813165
16.20315696335115 2030.4836638628296 1103.5656259535174
10.697100879302681 805.6917004596343 437.8925482472417
36.179387432942036 1947.8936749389413 1058.6780583033094
49.09829685100057 1683.4299870018094 914.9423363595583
68.49682259502339 1722.9677476568625 936.4310655538069
241.60498403336234 1792.3784830290665 974.1557234725987
276.15336977615704 1900.4483621528777 1032.8915832702112
-441.65017900844225 1809.0266078206776 979.1178336629418
-354.65928170555435 1587.4054580050185 859.167569159752
-228.4004335194121 1633.1368063796783 883.9192110413627
-207.02748886784102 1600.5971931130935 866.3074658563705
-207.0116651642874 1742.188483273098 942.9423570667417
-216.56829234556085 1999.8670423841618 1082.4083392073553
-84.26045982078253 817.8875767006467 442.6735951903432
-198.1530389632238 2027.1299616075166 1097.1641257137
-74.98507558130035 810.8519846430067 438.86565028548
-183.28684810492058 2101.8831272199413 1137.623540327871
-72.26388219380361 882.0873542266114 477.42109244721956
-162.64792596574284 2122.1104543856563 1148.5713819293528
-61.9446331577056 868.0161701113315 469.8052026374932
-140.57975161295107 2127.387148428886 1151.4273406080001
-55.873916732209935 919.0242125292212 497.4128031977512
-119.31546108398989 2149.373373609011 1163.3271684356976
-42.75711476513215 851.3066389744365 460.7613334884432
-96.94364579756434 2157.288414673856 1167.6111064536685
-33.85824187223233 853.9449859960515 462.1893128277669
-72.12968386174691 2099.244780198326 1136.1955609885474
-26.127754782514074 898.7968853635064 486.4649615962696
-50.670666616326116 2130.9049444577063 1153.3313130604317
-18.275075926982794 988.500684098416 535.016259133275
-27.27224099064815 2066.7051669317416 1118.5838158035554
-7.201445405257104 911.1091714643762 493.1288651797801
-5.441699014153361 2083.4146980686364 1127.6276849526053
2.2558044026402793 841.6326998951815 455.52540924425637
16.04890795720934 2013.0587774922367 1089.5482359039736
8.259048443343836 622.6498971011374 337.0031240803903
35.3144765019786 1903.1276515916122 1030.0490967654866
51.45583511315717 1765.933606467633 955.7941711206549
71.46583326334414 1799.3526687414226 973.881909418755
233.00041601548153 1604.9944381491184 868.68743142191
242.72023152106956 1559.2630897744586 843.9357895402994
-254.46391552607423 1583.6208991863132 853.5489720340204
-199.13325259689347 1325.6993186073305 714.5329360106919
-233.0742172963306 1668.1276286592904 899.0968882737458
-217.3788633112331 1682.2120835714534 906.6882076470333
-203.7722095256741 1716.5429424198503 925.1920486194217
-217.0444759259161 2006.1545465511995 1081.2885532326472
-101.47496236481336 985.9118438514012 531.3923561301294
-207.69533281351352 2126.752691736594 1146.289225366422
-78.72619648882727 852.1095221858538 459.27482208389756
-184.5905620872568 2118.8301858485024 1142.0191082189478
-72.48002541073423 885.5601026022407 477.3042055954555
-161.50204335429748 2109.1471230963903 1136.8000761498126
-66.33786955186912 930.4543026347599 501.5015360978096
-140.46352197127024 2127.632970168604 1146.7636828272525
-54.644155885472294 899.6445575144036 484.8955249687431
-118.29024640200797 2132.9146407606654 1149.6104275922353
-44.52393768931117 887.3206594662611 478.2531205171165
-96.74604358436099 2154.92160156092 1161.471864112997
-33.99771969662875 858.2714712099252 462.59602430971086
-73.76144043004786 2148.7596525368485 1158.1506618871838
-25.207403342034127 867.9545339620371 467.81505637884607
-50.461542940649984 2124.1118564405633 1144.8658529839306
-16.502848813067203 893.4826084903324 481.5743227429298
-27.864106646189875 2113.548515256441 1139.1723634539649
-7.00681174565556 887.3206594662611 478.2531205171165
-5.457778327407508 2091.541554456187 1127.310926933203
2.4066627952933386 898.7642790823934 484.4210675079126
16.006840046443394 2009.6756602792402 1083.1863830759692
14.10337509604901 1064.256624300307 573.6190701440415
35.559262614515426 1918.1267033501815 1033.8428071496
16.44241818926087 690.1382906959808 371.9746492910906
48.893293523856514 1679.5712482754227 905.264835264542
71.98977632245956 1814.2538483729802 977.8568267716042
62.32096069553047 1240.3123107023432 668.510562310136
128.85646063087825 1573.057558002191 847.8554825040547
205.53192228731083 1995.5912053670772 1075.5950637026815
224.2678565638174 1808.091899348909 974.5356245457909
251.55342455238315 1869.7113895896216 1007.747646803924
296.96381789151235 2047.527632855678 1103.5880538916795
254.76725936870304 1638.1981619709443 882.9653346055097
-238.33890920591168 1484.6622204387959 796.87081211558
-237.87564503440328 1585.1082104269399 850.7837335287409
-252.63031257343698 1809.7900301372622 971.3784261634429
-189.2822755363118 1466.1590117567694 786.9394844868399
-206.1756766123872 1738.4205109351599 933.0718767383023
-208.18746133130873 1926.095913281429 1033.8039141155239
-83.08262543619094 807.9734457818254 433.6679731216539
-205.7181007544445 2108.4846845756906 1131.6984293131056
-77.2622796119689 837.0499165678672 449.2743451096742
-182.75002470042918 2099.6736328223446 1126.9692256803721
-69.8863068075668 854.6720200745591 458.732752375141
-164.33304745316246 2148.1344174657474 1152.979845660406
-61.81911211787236 867.888597704578 465.82655782424115
-139.24311073362165 2111.1280001016944 1133.1171904029256
-52.02423060329212 857.3153356005629 460.15151346496106
-118.63198462933528 2141.0855760630707 1149.1964827542192
-44.170573104475366 881.105175334597 472.92036327334125
-96.46940048587629 2150.7777329917512 1154.398606750226
-33.683894591736795 851.1475993732207 456.84107092204766
-72.79447357475841 2122.582367381044 1139.2651551254792
-25.872101604602978 891.6784374386121 478.59540763262135
-50.79614082173179 2140.204470887736 1148.723562390946
-16.24270538350161 880.2240701592624 472.44744291006793
-28.165842078426834 2138.442260537067 1147.7777216643992
-7.041567756298693 892.5595426139467 479.06832799589466
-5.430213790400399 2082.9326344909873 1117.9837387781788
2.6164502475764992 978.0267446214026 524.9416032334088
16.469587064868826 2069.7160568609684 1110.8899333290785
10.5571170073816 797.4001836778102 427.9929287623738
35.559262614515426 1919.9281770540867 1030.4934715726106
48.816417276177496 1678.5053590124073 900.9132920357151
71.29118557697232 1798.3356628579124 965.2304614408895
202.4552245825768 1785.1190852278935 958.1366559917893
221.5896691796181 1648.547783051031 884.8339996844214
-421.4678178870064 1731.2270876372725 925.3225227081463
-256.88138523271493 1417.2602800983682 757.510592965864
-228.545146696032 1337.8866489789823 715.0862287051747
-259.8389176327951 1620.104004070132 865.9284127431812
-259.42858007643093 1730.3451584026125 924.8511408830275
-238.85494986251928 1712.7065737094156 915.423504380652
-206.0037265602528 1597.1738439689761 853.6724852900932
-193.4268511959091 1632.45101335537 872.5277582948439
-217.99684308662654 2018.7360181363813 1078.9929976968654
-81.36117518178786 791.9724527245393 423.30087895665577
-207.7812994247774 2131.6229601728414 1139.329871312068
-92.14543452669555 999.2258228696024 534.0756078595668
-184.0537386827654 2116.630163183624 1131.3163802850488
-68.51739976700621 838.714702161511 448.2841156879506
-162.8501405442332 2130.741030938181 1138.858489486949
-64.14125135478736 901.3316778223599 481.7522252713833
-141.85827767144008 2152.7892618046776 1150.6430351149183
-53.78867007904611 887.2208100678024 474.210116069483
-117.02093298622084 2113.9843754796443 1129.9022348096926
-43.949720238952985 877.5195884865441 469.02491599317653
-96.78556402700166 2159.844695681956 1154.4140897158686
-33.05624438195288 836.0689144575315 446.8699702125943
-73.00599757435297 2130.741030938181 1138.858489486949
-26.869148998456254 926.9076256274953 495.42229819982765
-51.06800160011076 2153.6711910393374 1151.1144169400372
-16.275223312197312 882.8111638945031 471.8532069438891
-27.806080601528922 2113.1024462449845 1129.4308529845737
-6.937299724369295 880.1653761905236 470.4390614685328
-5.5404719384288335 2127.213313999542 1136.9729621864742
2.3760196842856858 888.984668537122 475.15287971972054
16.2452248741171 2043.430036706857 1092.1916888001908
10.440463780780698 789.3266650205597 421.8867334812995
36.179387432942036 1955.2371132408725 1045.0535062883139
16.25366593963925 683.4951568613785 365.32091446704703
50.30269139797188 1731.2270876372725 925.3225227081463
72.75822614249552 1837.0585957964536 981.8883417223986
228.6365023913799 2017.8540889017215 1078.5216158717467
203.52253390212056 1643.916093405948 878.655722021388
244.32896179452283 1819.4200111032567 972.4607052200232
238.61796029201918 1648.325739579247 881.0126311469818
-434.37226505121316 1713.4189291103228 911.9630328946646
-426.6313305050277 1831.7075105120657 974.9218409358213
-291.5691640724779 1610.1371080356664 856.9915363214159
-272.98866566460777 1599.544100745958 851.353434108775
-251.35207220113057 1568.6478294843089 834.9089693219057
-266.17213643927397 1776.9769728485728 945.7916461705099
-245.98861983781595 1765.5012149513886 939.6837021068156
-220.22264749897815 1709.0051760729443 909.6138236393975
-214.74455926936426 1814.052498362552 965.525003914753
-219.1396836794791 2031.2091478015727 1081.1060992738915
-80.63635402203919 785.648040653368 418.15924743753294
-204.4286015854864 2099.180944577201 1117.2839218050037
-84.33787785011764 915.412379952295 487.2259995423839
-186.20103230073101 2143.318474950986 1140.776014357674
-70.10245002449741 858.9163410738506 457.1561210749658
-162.58052110624607 2129.1944652313746 1133.2585447408196
-62.823280436538305 883.63335808317 470.3116929044612
-140.3472923295894 2131.8427170538016 1134.6680702939798
-54.002541530652664 891.5781135504512 474.5402695639419
-118.19260690848589 2137.139220698656 1137.4871214003003
-46.33493118659466 926.0053872420034 492.8641017550248
-96.98316624020501 2166.269990745354 1152.9919024850628
-35.39249794059301 895.9918665878298 476.88947881920893
-73.76144043004786 2154.79423284817 1146.8839584213686
-24.8750542107497 858.9163410738506 457.1561210749658
-51.54898605416586 2175.9802474275866 1158.1601628466503
-16.95809981480699 920.7088835971492 490.0450506487043
-28.073000406969307 2135.3737194837045 1136.5474376981936
-6.860836500954402 871.2748495785103 463.7339069897135
-5.496828088167578 2112.4222036893366 1124.3315495708048
2.7908802640815993 1045.176719251222 556.2927516472348
16.609813434088654 2091.23618910992 1113.055345145523
12.295250083735034 930.4191402793818 495.2133110102918
37.321722624780534 2018.850639296913 1074.5283133591436
53.377741305132666 1838.7695153718712 978.6805757442485
73.80611226072637 1865.2520335961422 992.7758312758507
177.2732321863234 1565.9995776618819 833.4994437687454
227.7482275961548 1697.5294181757602 903.5058795757033
-474.54909470021175 1800.7142156288492 954.3963084757709
-424.9864868211529 1826.3377250759722 967.9770214030511
-348.764667605185 1568.3354920221823 831.2332912387111
-285.334954972244 1577.171184934983 835.916295696394
-279.16556152125725 1637.2538967420303 867.7607260086376
-259.9803650566562 1624.0003573728286 860.7362193221132
-272.3867864207175 1820.1527400370114 964.6989182826732
-254.59822153213952 1828.9884329498125 969.381922740356
-224.31769672933103 1742.3986424043624 923.4884790550639
-203.45871381871154 1720.3094101223598 911.7809679108566
-214.854031456282 1993.3323211279117 1056.4858056532576
-90.4214396786462 881.8021526975424 467.3638448767514
-205.7181007544445 2114.3813140332854 1120.6429667235132
-83.11794711940234 903.0078156882649 478.6030555751903
-185.51083078067066 2137.3541156065685 1132.8187783134886
-74.64145758004041 915.3777857661863 485.1592618159463
-167.0292418330339 2189.4847037920945 1160.4485046138175
-64.07849083487073 902.1242463969847 478.134755129422
-140.40540715042982 2134.703407732728 1131.4138769761837
-53.20052358712812 879.1514448237021 465.9589435394465
-120.04775728540552 2172.6968872577722 1151.5507961442202
-50.04525932737059 1001.0840070203562 530.5844050554703
-100.61904696314669 2249.5674155991414 1192.2929349260612
-37.38005693824207 947.1862802522701 502.0180778636047
-73.76144043004786 2156.7926400147308 1143.121388120391
-26.102189464722965 902.1242463969847 478.134755129422
-51.40259948119257 2171.8133179664924 1151.0824956984518
-16.714215349589246 908.3092314359455 481.4128582498
-28.328315003477503 2156.7926400147308 1143.121388120391
-7.104128575456332 903.0078156882649 478.6030555751903
-5.492233998666394 2112.6141754507253 1119.7063658319764
2.328876436581605 872.9664597847415 462.6808404190685
16.399473880258913 2066.66857230416 1095.3547426520256
12.190262179794223 923.3299093877073 489.3739658278609
36.554726138831825 1979.1952124674299 1048.992998520965
19.399536766666202 817.3015944340949 433.17791233566635
52.3527246694124 1805.1320620852498 956.7378107046122
74.99371652805466 1897.0232683783804 1005.4410570645142
147.09970883435457 1802.4813542114093 955.3329093673074
183.41026854310977 1787.4606762596477 947.3718017892465
210.51043206185003 1703.5215935880378 902.8832594412592
-402.6021430552248 1812.105446053819 956.3863510015655
-310.3513527975121 1821.8336841731905 961.5206847551123
-256.58562688399036 1604.2749044127027 846.6983117212493
-274.89909173236487 1838.6370045611955 970.3890794203293
-254.3522329123017 1828.9087664418241 965.2547456667826
-224.54519946435065 1745.7765497853775 921.379529954656
-206.6981694573248 1749.3140909196945 923.2465604104913
-214.75879474021096 1994.288814471138 1052.5384194770768
-97.21663805128995 948.9454092805016 500.8309197777842
-207.4374329797219 2134.021689276655 1126.2861224825658
-91.41347608826638 994.0490587430418 524.6355580896826
-184.0537386827654 2122.5246805901247 1120.2182735011015
-71.61545254301174 879.0789718777434 463.9570682750396
-170.26467508887959 2233.957226321106 1179.0297328599095
-62.07015419753884 874.6570454598473 461.62328020524563
-141.85827767144008 2158.784477216873 1139.3553356734121
-57.90569552247211 957.7892621162938 505.4984959173721
-119.75483880483927 2169.3971006198235 1144.9564270409176
-42.58043247271425 852.5474133703667 449.9543398562758
-97.81309553565909 2188.853576858566 1155.225094548011
-38.46101007731437 975.4769677878782 514.833648196548
-72.97577986012519 2135.790459843813 1127.2196377104835
-25.51418715552744 882.6165130120602 465.82409873087477
-50.87979029200224 2151.709394948239 1135.6212747617417
-16.161410561762366 879.0789718777434 463.9570682750396
-28.42115667493503 2165.8595594855065 1143.0893965850823
-7.090226171199078 902.0729892508031 476.0927662379682
-5.503719222419355 2118.9871394558077 1118.3512430452665
2.3218049494259927 871.1195043255303 459.7562497494105
16.420507835641885 2071.23033414253 1093.1463318914916
12.983504120680355 984.3208206236703 519.5012243361359
37.79497577568505 2048.2363167694702 1081.010633928563
16.861867632864463 711.0457679976918 375.27312162286904
53.09586173030959 1832.446307576141 967.1217761226177
70.10358130964403 1774.961264143492 936.7825312152962
145.00858552249363 1778.4988052778087 938.6495616711314
157.8125610956162 1714.823064860105 905.0430134660984
166.90969075030404 1628.1533070693415 859.3007672981367
-421.6825238563834 1738.5300148268243 913.6790396776332
-317.28152863667987 1864.228213454833 979.739336843735
-218.53626986536113 1367.63180901601 718.7546417016005
-260.2219396485301 1742.0708091543738 915.5398931189318
-249.55545482546427 1796.0679226495045 943.9179080987361
-223.97644262680163 1742.9560077362612 916.0051064792565
-206.07117804339967 1745.6116034819233 917.4007465602305
-217.80636965448446 2024.4491567764496 1063.9429550624986
-88.88119471418028 868.3798088315248 456.3743064784919
-204.60053480801415 2106.7726248919766 1107.207797572692
-81.89801638868704 891.3949719605968 468.4698538469331
-185.58751983845514 2142.180568167472 1125.8163319856783
-73.56074149538732 903.7877521070202 474.98284089147836
-167.16405155202744 2195.292483080715 1153.729133605158
-60.75218327928979 856.8722272669887 450.3265327942714
-146.2168892344708 2227.159632028661 1170.4768145768458
-53.09358786132484 879.0021918141734 461.9568668023879
-120.29185601921074 2181.129305770517 1146.2857198399633
-47.92507181835577 960.4404613478129 504.7564959522566
-97.5364524371744 2184.6701000980665 1148.1465732812621
-39.99526614567505 1015.3227734248308 533.5997242923855
-74.6377541426539 2186.4404972618413 1149.0770000019113
-28.8376784683717 998.5040003689704 524.760670446217
-51.59081078930108 2183.784901516179 1147.6813599209374
-17.462127709590323 950.7032769470516 499.63914898868535
-28.572024391053507 2179.3589086067423 1145.3552931193142
-7.597663926588817 967.5220500029119 508.4782028348539
-5.526689669925279 2129.7877880210485 1119.3033449411332
2.3618767099744615 886.9689790511599 466.1437870453098
16.371428606414945 2066.938688707044 1086.2731963580823
12.225258147774493 927.6881138179796 487.5436016202442
37.64810410816296 2042.1531284141975 1073.2472222689917
17.53298674263021 740.026014457854 388.9183692314162
54.01837670245783 1865.9986106186077 980.6697635643843
71.71034002426467 1817.3126886148016 955.0830287465279
175.7994491833579 1912.028936876752 1004.8608583012666
174.79732958532657 1706.6628658788784 896.9313587059454
259.72535783586454 1941.2404900790355 1020.2128991919805
-310.95397678352674 1828.722955212853 957.0101112723779
-259.2963534810811 1737.4640092889558 909.2523392466729
-239.71591003195164 1726.8318990842301 903.6883269718336
-221.01890707154678 1721.5158439818672 900.9063208344139
-196.14381398958477 1663.0392378558747 870.3042533227971
-219.04444696340806 2037.8211225724624 1066.4356860108862
-106.36750519311687 1040.174781695683 544.3458675551219
-203.5689354728477 2098.069747065909 1097.965088901643
-96.37452772650859 1049.9208827166817 549.4462121403914
-186.20103230073101 2151.2302980895383 1125.78515027584
-73.0564073225492 898.4133122993377 470.15903722392983
-163.45678427970427 2148.572270538357 1124.3941472071301
-63.9529697950375 902.8433582179736 472.4773756717796
-141.56770356723803 2158.318371559356 1129.4944917923995
-52.13116632909539 863.8589541339786 452.07599733070174
-119.36428083075093 2166.2924542129003 1133.667500998529
-45.05398456656487 903.7293674017006 472.94104336134956
-99.03822925751987 2220.3390144202567 1161.951230062296
-36.05501760647603 916.1334959738809 479.43239101532885
-73.76144043004786 2162.7484174779916 1131.8128302402492
-27.457151307651777 951.5738633229672 497.9790985981269
-51.75810972984198 2192.872729724715 1147.5775316856275
-16.795510171328495 915.2474867901537 478.9687233257589
-27.96855352657959 2135.2821327824495 1117.4391318635808
-8.091199277721302 1031.3146898584114 539.7091906594225
-5.558848296433573 2144.142224619721 1122.0758087592803
2.7437370163775183 1031.3146898584114 539.7091906594225
16.420507835641885 2075.033508289003 1085.909728972824
11.606996046789714 881.5791378085218 461.34935112210076
37.81129484985417 2052.883278695824 1074.3180367335754
19.7141238493689 832.8486327035281 435.8476281957535
55.094644169964106 1904.9197450133886 996.8855325753937
72.09456493428264 1828.722955212853 957.0101112723779
293.26134552743076 2035.163095021281 1065.0446829421765
235.32773716002177 1523.0497868269838 797.044758370745
-379.13646913314267 1635.2907077444272 852.1503982072239
-381.5780194305742 1722.1987822340984 897.4382176347228
-290.76607325203804 1711.556977194547 891.8927703578862
-213.30271518250137 1337.3201666369828 696.8778744557992
-281.6426480952079 1888.9203945204067 984.3168916384963
-235.04212625503314 1694.7074525485903 883.1124788362283
-220.79140433652717 1721.3119651474692 896.9760970283198
-204.39920093959927 1734.6142214469087 903.9079061243656
-221.7110750133974 2064.510177673008 1075.8167717063002
-85.89130743021703 840.7025981245754 438.0903348700913
-200.38817085608446 2067.170628932896 1077.2031335255092
-76.20500631201566 830.9476101716531 433.0070081996577
-186.2777213585155 2154.0787034225673 1122.4909529530082
-80.98165861000524 996.782405371332 519.4235615970281
-165.88335922158853 2182.4568501947047 1137.2788123579057
-66.2751090319525 936.4788434805397 487.99936036162063
-141.3352442838764 2156.739154682455 1123.8773147722172
-51.38261624847248 852.2312202507562 444.0979027533309
-122.63520386374083 2227.684521612799 1160.8469632844613
-47.70421895283339 957.7624535596428 499.0902549152938
-97.49693199453372 2187.7777527144804 1140.051535996324
-34.45102262591713 876.1752815897473 456.57515912621324
-73.4894810019977 2156.739154682455 1123.8773147722172
-26.38340796042517 915.1952334014364 476.90846580794744
-51.15165107038121 2169.154593895265 1130.34700326186
-15.966302989588172 870.8543790699715 453.802435487795
-28.09621082483369 2146.9841667295327 1118.7939881017837
-7.062421362684573 901.0061600153678 469.5145361054987
-5.492233998666394 2120.3796541306538 1104.9303699096922
2.427877256760175 913.4215992281779 475.98422459514137
16.399473880258913 2074.26516562593 1080.9000983767337
11.210375076346649 852.2312202507562 444.0979027533309
37.109574660581956 2016.6220549950258 1050.8622589605354
19.58828901628782 828.2871589117652 431.6206463804486
53.76212254352776 1860.5422477482691 969.5290322335986
72.23428308338009 1833.9377351493902 955.6654140415071
-233.3661385841487 1374.9269243177075 713.426206966249
-255.5940088112849 1715.7738829607028 890.2858993323171
-229.26139368884446 1654.5279450795397 858.5064233602892
-202.59118553495873 1580.8552951645172 820.2789377707485
-216.10304066620208 1835.6028918586308 952.463134929763
-220.85394456875795 2058.3960861799637 1068.0667359294584
-95.3139825069497 933.7786471157058 484.5218655445409
-208.29709909236064 2150.708804145775 1115.9662359452686
-83.93123427321254 916.0262013530498 475.3104232338082
-186.73785570522242 2161.3602716033683 1121.4931013317082
-79.32456061353716 977.272139234213 507.08989920583605
-166.62481267605318 2194.2022962642823 1138.5342696065638
-62.88604095645493 889.3975327090658 461.4932597677091
-147.66975975548104 2255.4482341454454 1170.3137455785918
-58.44037415148848 970.1711609291506 503.40532228154296
-120.29185601921074 2187.1013179592196 1134.8496926822706
-42.58043247271425 855.6678857600194 443.99151937731693
-98.76158615903518 2218.1680980438678 1150.969716726053
-34.834586643007306 886.7346658446673 460.1115434210992
-74.78884271379289 2196.8651631286807 1139.9159859531737
-25.64201374448299 890.2851549971986 461.95383188324575
-51.2980376433545 2177.337472789759 1129.7833994113678
-15.73867748871828 859.2183749125506 445.83380783946353
-28.490787928528174 2179.1127173660243 1130.704543642441
-7.020714149912814 896.4985110141282 465.1778366920022
-5.581818743939497 2156.9221601627046 1119.1902407540251
2.3925198209821144 900.9366224547922 467.4806972696854
16.806130350996412 2127.630624654322 1103.991360941316
12.201927502454312 928.452913386909 481.7584328513211
38.17031448157484 2076.1485319426197 1077.2781782401912
20.406215431314827 863.6564863532146 448.13666841714667
53.377741305132666 1848.9172261806227 959.3717166628124
73.3170987388853 1863.1191827907476 966.7408705113986
228.69569812177585 1713.998638384437 889.3647551012439
-221.34732061567044 1487.22309140388 768.4031991051874
-235.28811487487096 1699.556615206465 878.1095100885444
-229.55025963478198 1792.8412177138769 926.3068433657515
-217.35702349405238 1847.9235544325393 954.7662211103881
-208.18746133130873 1942.0965817257359 1003.4225766092828
-106.00509461324253 1039.4569993683033 537.0559993745933
-206.3198670332916 2132.2194858836992 1101.6533320504477
-85.801794726976 937.2881490030427 484.2684438805093
-185.1273854917482 2144.6574328846873 1108.0796431540755
-73.0564073225492 900.8627327858628 465.4485327913142
-165.74854950259495 2184.6365482450065 1128.7356431300213
-62.88604095645493 890.2016353564444 459.94026613106195
-144.53155943009892 2209.512442246983 1141.5882653372764
-51.43608411137412 854.6646439250494 441.5793772635545
-121.75644842204204 2215.731415747477 1144.8014208890904
-48.27843640319157 971.0482908628679 501.7112883046414
-98.68254527375383 2218.396690104832 1146.1784875541534
-36.647798360160834 933.7344498599032 482.4323549937586
-74.15427071500919 2180.1944243160824 1126.4405320215828
-26.843583680665144 932.8460250741183 481.97333277207093
-51.15165107038121 2173.0870260298034 1122.7683542480813
-16.112633668718818 880.4289627128107 454.8910216924974
-28.978206703680183 2218.396690104832 1146.1784875541534
-8.000833650049156 1022.5769284383907 528.3345771625272
-5.59560101244305 2164.2027781719544 1118.1781320312045
2.4985921283162966 941.7302729319671 486.56355498894777
16.729005847925507 2119.7815388827107 1095.2270209468202
11.2687016896471 858.2183430681889 443.41546615030524
37.61546595982472 2047.819131234136 1058.0462209901175
18.770362601260814 795.1401832774628 410.8248884104795
57.19592827319064 1982.96412187184 1024.5375988069165
70.13851084691838 1783.9569698560283 921.7166211488747
239.6393319786624 1667.5733229182097 861.5847101077877
-360.83758315003547 1560.5891328824173 802.8614814084092
-241.43783037081636 1745.5478449277407 898.0154347605169
-232.73529792505644 1819.3534848304419 935.9855219154446
-216.6255335111397 1843.3625484132483 948.3372370140354
-211.90169325807955 1978.524684138677 1017.8728183098065
-107.2735316428027 1052.8418993349185 541.6455806196902
-206.66373347834707 2137.6958834469124 1099.7601147041685
-93.85333754969697 1026.1651620206892 527.921452732367
-188.19494780312763 2182.157112303961 1122.6336611830404
-71.39930932608112 881.2215559467097 453.35369121124415
-165.9507640810853 2189.270908921089 1126.29342861966
-59.87353600045709 848.3202465924935 436.42726681687884
-145.6357410260667 2228.396790315292 1146.4221495210675
-51.06180907106266 849.2094711696344 436.88473774645627
-122.1470063961304 2224.839892006728 1144.5922658027578
-43.55218508101271 876.7754330610047 451.06633656335697
-98.68254527375383 2220.393769121023 1142.3049111548705
