# .PCD v.7 - Point Cloud Data file format
VERSION .7
FIELDS x y z
SIZE 4 4 4
TYPE F F F
WIDTH 852
HEIGHT 1
VIEWPOINT 0 0 0 1 0 0 0
POINTS 852
DATA ascii
1453.7038917185928 2927.359669161162 1512.4782204609273
1679.6014517441959 3329.81609712171 1720.4152868854494
1514.906480433546 2948.681864019999 1523.4947537814317
1813.7186566374364 3284.506433046681 1697.0051535793773
-1921.1268293471483 3219.882193827483 1656.5022359999143
-1986.0254523057222 3379.053393135718 1738.3895323942763
-1901.557845228941 3337.259838010092 1716.8883987041365
-2109.7026349762573 3762.30918588348 1935.5595030421534
-1506.6962975279123 2738.8116975942135 1409.0104630985186
-1823.0158718031457 3360.379677015758 1728.78264287315
-1898.8268638878678 3560.455206872478 1831.7136020280743
-1465.1572107121376 2795.722070531236 1438.288602591475
-1590.261668882095 3089.166180987759 1589.2540093520304
-1695.912249026875 3304.358528655876 1699.9619743097712
-1667.0671177537376 3298.133956615889 1696.7596778027291
-1489.4145310024244 2955.7824944166123 1520.6333699154143
-1349.5559670532728 2729.030227245663 1403.9782828731668
-1567.8478638130662 3296.355507461607 1695.8447359435743
-1473.0953814521563 3160.3041471590373 1625.8516837182258
-1527.7795503944828 3346.152083781502 1721.463107999911
-1544.1393415137404 3442.1883381127277 1770.8699683942746
-1556.51691868782 3482.2034440840716 1791.4561602252595
-1432.3835548573554 3275.014117610224 1684.8654336337156
-1320.1248753084292 3074.9385877535037 1581.9344744787913
-1379.3787616643847 3299.912405770171 1697.674619661884
-1208.2055634323144 2959.3393927251764 1522.463253633724
-1181.268980669569 2952.2255961080486 1518.8034861971046
-1167.949470012925 2930.884206256665 1507.824183887246
-1228.3491585497852 3146.9657785019226 1618.989619774564
-1276.771856472504 3284.7955879587744 1689.8976138590674
-1168.1393072790029 3018.028214816481 1552.6563349858352
-1289.4316034591784 3388.834863484269 1743.4217126196281
-1172.3576259780448 3094.5015284506053 1591.9988349294952
-1097.9895567577535 3043.815727553569 1565.9229919435809
-1188.4286182761084 3309.693876118722 1702.7067998872358
-1169.1432063899313 3332.8137151243873 1714.6010440562493
-1188.1438955211795 3403.0624567185246 1750.7412474928672
-1093.207108804984 3161.1933717361785 1626.309154647803
-1196.5619978538425 3510.658630552583 1806.0952299717376
-1104.4656048841996 3256.340401490263 1675.2585441125893
-951.0272799255144 2889.090651131039 1486.323050197106
-1005.6396713624007 3134.516634421949 1612.5850267604799
-1132.9319031683472 3549.784511946786 1826.223950873145
-948.2763820677413 3067.8247911363756 1578.274707042172
-931.7172657069632 3115.8429183019884 1602.9781372393536
-905.7458108703355 3116.7321428791297 1603.4356081689311
-952.9026812038717 3298.133956615889 1696.7596778027291
-881.9209565010393 3144.2981047705 1617.617206985832
-878.3428631414204 3150.5226768104867 1620.819503492874
-861.6219023701235 3167.4179437761654 1629.5114511548452
-775.6875487416997 2981.5700071537008 1533.9000268731602
-757.7552947889784 2931.773430833806 1508.2816548168234
-871.8611245773826 3418.1792745299213 1758.5182532956837
-741.9557833789056 2968.231638496586 1527.0379629294985
-869.8049933663192 3503.5448339354552 1802.435462535118
-823.9106670896903 3364.8257999014627 1731.0699975210373
-786.8860931448837 3282.1279142273515 1688.5252010703352
-789.5458646876613 3316.80767273585 1706.3665673238554
-743.6928664938729 3240.3343591017256 1667.0240673801954
-741.8038682971898 3256.340401490263 1675.2585441125893
-644.5567347631857 2939.776452028075 1512.3988931830204
-641.0729952966509 2946.8902486452025 1516.0586606196398
-660.9888809214629 3162.9718208904605 1627.2240965069582
-622.5756193984669 3003.800621582225 1545.3368001125962
-552.7614336131522 2806.392765456928 1443.7782537464043
-613.4407013028429 3286.5740371130564 1690.8125557182225
-568.2100107299445 3191.427007358972 1641.8631662534362
-582.6236210655206 3304.358528655876 1699.9619743097712
-528.7870352970691 3153.1903505419095 1622.1919162816062
-482.3172027143707 2905.985918096718 1495.0149978590775
-495.14661676320475 3146.9657785019226 1618.989619774564
-149.75344531463824 1096.4139036148265 564.0616561689849
-157.00718927213808 1356.067480139992 697.6431676055977
-121.17403924471569 1169.3303189403866 601.574272394335
-100.29196732643089 1056.3987976434823 543.475464338
-108.9804690190164 1169.3303189403866 601.574272394335
-108.88094800757324 1288.4864122772779 662.8753769577122
-79.15999809025959 1068.8479417234562 549.8800573520842
-79.0355018455022 1092.8570053062626 562.2317724506752
-74.43797737899328 1203.1208528717439 618.9581677182779
-63.909222165515416 1202.2316282946028 618.5006967887005
-59.347428755697486 1389.8580140713493 715.0270629295404
-60.28733359900207 3010.025193622212 1548.5390966196383
-34.82669672999505 3080.2739352163494 1584.6793000562561
-34.146278706373465 3571.1259017981697 1837.2032531830037
-21.577713039202084 3553.3414102553497 1828.0538345914547
-2.691770948342446 3210.100723478932 1651.4700557745625
31.562020225969814 3277.6817913416467 1686.237846422448
37.46229683801957 3293.687833730184 1694.472323154842
9.495732671902992 571.7714031016492 294.1538077182946
59.597287401810945 2965.5639647651633 1525.665550140766
70.55789174060016 3230.5528887531746 1661.9918871548437
100.22876888555767 3102.504549644874 1596.116073295692
138.51437658733528 3376.3857194042953 1737.017119605544
163.20735341271063 3170.0856175075883 1630.8838639435776
195.6886136393519 3159.4149225818965 1625.3942127886482
225.881078906513 3547.1168382153633 1824.8515380844126
222.90909336122715 3079.3847106392086 1584.2218291266786
249.8909327822866 3371.050371941449 1734.2722940280794
274.5121039646182 3314.139999004427 1704.994154535123
264.48571124055155 3127.402837804821 1608.9252593238605
329.5828642952532 3533.7784695582486 1817.989474140751
289.60001426851034 3048.261850439274 1568.2103465914681
306.958501887181 2960.228617302317 1522.9207245633015
329.1636341598246 3122.0674903419754 1606.1804337463957
357.3621016504466 3334.5921642786693 1715.5159859154041
337.39459546873326 2956.6717189937535 1521.0908408449918
386.2044800123619 3333.702939701528 1715.0585149858268
401.8315679848579 3226.995990444611 1660.1620034365337
417.4185035105944 3306.136977810158 1700.876916168926
444.2643051418541 3292.7986091530433 1694.0148522252646
404.6423209437961 2961.1178418794584 1523.3781954928788
478.98152359904674 3296.355507461607 1695.8447359435743
476.46119847279783 3026.920460587891 1557.2310442816097
606.6850316721817 3439.520664381305 1769.4975556055422
581.7269064490357 3266.121871838814 1680.2907243379411
623.7878572068433 3340.8167363186562 1718.7182824224462
628.8645748972775 3337.259838010092 1716.8883987041365
580.2802734572966 2945.1117994909205 1515.143718760485
596.2957641660585 3000.2437232736615 1543.5069163942862
701.8665637926252 3385.277965175705 1741.5918289013184
730.7206201989196 3495.5418127411863 1798.318224168921
643.5904955838696 2957.5609435708943 1521.5483117745691
723.7366738739754 3299.912405770171 1697.674619661884
752.9613030583636 3304.358528655876 1699.9619743097712
782.695027082187 3409.2870287585115 1753.9435439999093
804.7980821599058 3379.9426177128594 1738.8470033238536
936.6938275681075 3746.303143494942 1927.3250263097596
798.638772316239 3089.166180987759 1589.2540093520304
948.9707323408634 3646.7099908551527 1876.088282197086
936.6419905831036 3485.7603423926357 1793.2860439435692
904.3153817174664 3344.37363462722 1720.5481661407562
1026.5858675300963 3681.389749363651 1893.9296484506062
1068.7305624854664 3809.4380884719517 1959.8054623097578
960.0564815611353 3322.1430201986955 1709.11139290132
1029.2411901592752 3540.8922661753763 1821.6492415773705
940.7674338326119 3199.4300285532404 1645.9804046196332
1003.9952221504925 3356.8227787071937 1726.9527591548401
952.1369788210086 3165.6394946218834 1628.5965092956903
1156.8655532615724 3741.857020609237 1925.0376716618723
1161.6414040190984 3620.0332535409234 1862.3641543097629
1053.9767820633529 3201.2084777075224 1646.895346478788
1122.580538105972 3392.3917617928328 1745.2515963379378
265.9591002738428 787.8529753469069 405.3192436056128
1074.5095960106344 3167.4179437761654 1629.5114511548452
1253.1897135403992 3658.2699103579853 1882.0354042815927
1225.8283789022698 3493.7633635869042 1797.4032823097662
1198.540678020633 3337.259838010092 1716.8883987041365
1271.4300410744875 3523.9969992096976 1812.957293915399
1233.890577978453 3343.484410050079 1720.0906952111786
1188.9663252169696 3207.4330497475094 1650.0976429858301
1353.1674542578473 3618.2548043866414 1861.449212450608
1212.15330943403 3185.202435318985 1638.6608697463942
1387.5414241820652 3554.230634832491 1828.5113055210322
1397.4379105698858 3506.212507666878 1803.8078753238503
1333.7636282793774 3332.8137151243873 1714.6010440562493
1582.7225143139415 3771.20143165489 1940.1342123379277
1494.8968945947422 3494.6525881640455 1797.8607532393437
1493.2793078425525 3477.7573211983668 1789.1688055773723
1489.9476670920556 3332.8137151243873 1714.6010440562493
1521.0833459772261 3331.0352659701052 1713.6861021970944
1515.390636840814 3307.026202387299 1701.3343870985036
1422.1516773079231 3040.2588292450055 1564.0931082252712
1431.421779542859 3009.1359690450713 1548.0816256900607
1882.6483604206908 3944.6002241973806 2029.3410436055287
1605.6485573105513 3277.6817913416467 1686.237846422448
1193.0644187406515 2317.31924802939 1192.1692424788116
1826.1569161938712 3328.3675922386824 1712.313689408362
1839.720033105325 3334.5921642786693 1715.5159859154041
1509.9138123843122 2699.685816200011 1388.8817421971112
-2036.9822429355129 3326.9009642008423 1704.2223958156128
-2406.255883888155 3987.2970357463278 2042.5137328127196
-1862.2356175113202 3123.9760257744665 1600.2730361992512
-1988.1160054134125 3385.642393745319 1734.312999915086
-1892.4776661227636 3272.609642955189 1676.4113829357968
-1961.1109580150367 3500.455187854979 1793.126453382238
-1832.493046383796 3279.7298162333077 1680.0587288872482
-1810.473291049803 3340.2512890973144 1711.061169474584
-1900.7237938218216 3567.2068123373397 1827.3203216770937
-1699.9534784414268 3199.627866854475 1639.026086933421
-1478.6717015234135 2824.0387264337273 1446.628587994366
-1696.8788644593226 3250.359101461069 1665.0134268375116
-1690.5113250378747 3286.849989511426 1683.7060748386994
-1434.8622472929212 2798.228098300548 1433.406958920355
-1735.835321856278 3437.2636500116782 1760.756258063108
-1685.673124437762 3348.2614840351976 1715.1644336699667
-1560.630214099728 3158.686870505294 1618.0538477125763
-1558.794581560495 3205.8580184728285 1642.217514640941
-1601.0642852652013 3358.0517222926105 1720.1795343532121
-1668.9311223648122 3512.025469431922 1799.0533905533464
-1530.260913917687 3342.9213540766086 1712.4289242063783
-1449.198336449385 3245.0189715024803 1662.2779173739232
-1351.3792587518944 3081.254986105756 1578.3889604905435
-1370.5456549870541 3136.4363290111737 1606.655891614291
-1454.8860323309495 3391.872545363673 1737.5044276226058
-1414.4297527097012 3309.990552665311 1695.5599491809162
-1458.6035521397764 3479.094668020624 1782.184415527884
-1251.2861199444008 3055.4443579725767 1565.1673314165325
-1342.531302155258 3291.30009781025 1685.9856660583564
-1333.553054081188 3335.8011807984903 1708.781578254927
-1173.619127634347 2947.751737141035 1510.001223900832
-1485.3663697933794 3746.1011659500655 1918.9598887073073
-1412.3065063970262 3621.4981335829925 1855.13133455691
-1471.3637772072143 3788.822205618776 1940.843964416015
-1255.9049510477446 3318.000747603194 1699.6632133762987
-1171.29434908897 3163.136978804118 1620.3334389322333
-1158.5408687053905 3142.6664806295275 1609.8473193218108
-1193.2577128655691 3310.8805743250755 1696.0158674248476
-1157.7184704464275 3318.890769262959 1700.1191316202303
-1100.1823840449463 3230.7786249462433 1654.9832254710204
-1079.4326597161526 3185.387520298238 1631.7313950305186
-1022.7999009861368 3125.7560690939963 1601.1848726871142
-1021.3305031141545 3186.277541958003 1632.18731327445
-969.173608361649 3121.3059607951723 1598.9052814674571
-939.4807750456637 3042.0940330761046 1558.3285577575614
-975.9964194825718 3248.5790581415395 1664.1015903496489
-887.915151540791 3058.114422951871 1566.5350861483269
-882.669192606668 3149.786653907646 1613.4946652732622
-915.0334484490495 3285.069946191896 1682.7942383508366
-858.6627470438898 3179.1573686798847 1628.5399673229988
-865.7044048818436 3225.4384949876544 1652.247716007432
-872.6195746655804 3357.1617006328456 1719.7236161092808
-192.90514810620593 767.1986707172622 393.001526268876
-849.3148736641098 3400.772761961321 1742.06361006192
-812.4067100995292 3415.9031301773225 1749.814220208754
-734.7139897088769 3228.1085599669486 1653.6154707392263
-732.0963517954514 3342.0313324168437 1711.973005962447
-647.6500869804428 2979.792516892568 1526.4142806823627
-798.501327331888 3824.4230720093683 1959.0806941732715
-585.3464082917498 2826.7087914130216 1447.99634272616
-648.4962612850144 3157.796848845529 1617.597929468645
-606.6965237139525 3056.3343796323416 1565.6232496604641
-611.785705833568 3108.845657558465 1592.5224260524174
-582.7460726989314 3096.3853543217574 1586.1395706373776
-582.901445610277 3125.7560690939963 1601.1848726871142
-572.8012869381274 3220.0983650290655 1649.5122065438436
-553.9314459699905 3144.446523949057 1610.7591558096738
-551.6027195611558 3292.190119470015 1686.4415843022878
-455.75138371541516 2748.3868853537188 1407.8755372601959
-432.42230214824383 2781.3176867650163 1424.7445122856582
-140.5485592442589 1130.3275079013026 579.0161697928914
-125.39984034981259 1084.046381593533 555.3084211084581
-124.33141986270829 1091.1665548716512 558.9557670599094
-115.61623646023011 1098.2867281497697 562.6031130113607
-109.3249980536431 1152.5780493954228 590.4141258911767
-111.88108986743129 1201.5292406824872 615.4896293074044
-103.39557243507299 1224.669803836372 627.343503649621
-100.53080226453184 1215.769587238724 622.7843212103069
-94.04365829691406 1270.950930144142 651.0512523340543
-91.18986299179994 1262.0507135464939 646.4920698947402
-75.85496545362416 1193.519045744604 611.3863651120216
-75.53831702982836 1221.9997388570778 625.9757489178268
-63.48379095287515 1195.2990890641336 612.2982015998845
-58.85381610449846 1379.5335726354483 706.6732780936865
-114.7171600858237 3064.3445745702247 1569.7265138558469
-97.86230485190474 3212.0881700911823 1645.4089423484609
-72.89521361397645 3350.931549014492 1716.532188401761
-61.56966388530285 3076.804877806932 1576.1093692708864
-37.05866170518526 3280.619837893072 1680.5146471311796
-29.571901728278615 3095.495332661993 1585.6836523934462
-2.91098996740413 3474.6445597218 1779.904824308227
2.766176487510906 3055.4443579725767 1565.1673314165325
29.0360310868865 3018.0634482624546 1546.0187651714134
37.58366497032417 3307.3204876860163 1694.1921944491219
65.45872976096956 3260.1493397184818 1670.028527520757
70.79094836071773 3244.1289498427154 1661.8219991299918
106.43381734622848 3297.530249428604 1689.1770937658764
127.05967175498783 3099.945440960817 1587.9632436131033
142.04308950464903 3324.2308992215476 1702.8546410838187
19.10763308762893 384.4893570183959 196.95668137836938
157.16433219238024 3055.4443579725767 1565.1673314165325
167.40686521728844 3148.0066105881165 1612.5828287853994
21.164950276356656 385.3793786781607 197.4125996223008
202.40800876009519 3270.8295996356596 1675.499546447934
228.71237846663476 3594.797483790049 1841.4537872389674
245.9531174511259 3400.772761961321 1742.06361006192
261.8878068963399 3536.0560542455714 1811.3631831394944
286.73883035531486 3464.854321464387 1774.8897236249816
285.3918891549312 3377.632198807436 1730.2097357197033
289.27655527474667 3104.395549259641 1590.2428348327603
313.4235860373901 3301.980357727428 1691.4566849855335
349.2265842339352 3315.3306826238995 1698.2954586445046
369.7641822219742 3243.2389281829505 1661.3660808860602
355.2998803848056 3069.6847045288137 1572.4620233194353
414.897460798915 3334.9111591387255 1708.3256600109955
369.8161782043835 2931.7313472652686 1501.7946955100665
446.42383997646203 3311.7705959848404 1696.471785668779
515.1039227825511 3725.630667775475 1908.4737690968848
514.388315685685 3585.8972671924007 1836.8946047996533
484.27913419186063 3335.8011807984903 1708.781578254927
483.76855126189787 3293.08014112978 1686.8975025462194
497.9583397011328 3311.7705959848404 1696.471785668779
477.46119716108024 3069.6847045288137 1572.4620233194353
512.4337390155442 3258.369296398952 1669.1166910328943
526.6580707150573 3174.7072603810607 1626.2603761033417
541.529079901327 3230.7786249462433 1654.9832254710204
577.1977550552298 3275.2797079344837 1677.7791376675912
628.9348956879219 3371.4020471890826 1727.0183080121835
639.4210545718121 3396.322653662497 1739.7840188422629
577.1265763189417 2931.7313472652686 1501.7946955100665
650.0224720221585 3273.499664614954 1676.8673011797282
733.0237608719407 3538.7261192248657 1812.7309378712887
651.1611123268418 3117.745874156113 1597.0816084917315
724.0876832455923 3330.4610508399014 1706.0460687913385
650.0173360339423 2966.442191996096 1519.5755070233915
775.8581349328509 3407.8929352394393 1745.7109560133713
758.1975301469073 3305.540444366487 1693.280357961259
694.9085255587505 2921.051087348091 1496.3236765828897
786.2498884011603 3281.509859552837 1680.970565375111
813.0641106118602 3277.059751254013 1678.690974155454
777.280232892975 3111.5157225377593 1593.8901807842115
828.294616193267 3206.7480401325934 1642.6734328848725
800.8748365354128 3080.364964445991 1577.933042246612
974.4906486253471 3723.8506244559453 1907.561932609022
937.1198691497276 3490.664949597566 1788.1113526989925
960.0987288481371 3553.8564874408676 1820.4815480181226
905.8264874847638 3231.668646606008 1655.439143714952
917.3987256887723 3177.377325360355 1627.6281308351358
957.6440506127863 3297.530249428604 1689.1770937658764
1052.9316780116026 3523.595751008864 1804.9803277244546
1064.7352001928189 3543.1762275236897 1815.0105290909457
1215.3795011189914 4022.007880477155 2060.2945443260446
1173.6357050555257 3799.502465535954 1946.314983343192
1015.5370018305465 3269.9395779758947 1675.0436282040025
997.7616516889303 3128.4261340732905 1602.5526274189083
985.0125587506578 3072.354769508108 1573.8297780512294
1187.8697401251034 3666.8892382309978 1878.3831649974118
1199.0866822494984 3626.8382635415815 1857.8668440204983
1119.488028992419 3286.849989511426 1683.7060748386994
1148.6159498371624 3292.190119470015 1686.4415843022878
1327.163171344168 3750.5512742488895 1921.2394799269643
1207.1632728265367 3364.281873910964 1723.3709620607322
1182.2406513649978 3279.7298162333077 1680.0587288872482
1410.441942593455 3825.313093669133 1959.5366124172028
1293.7878642851695 3493.335014576861 1789.4791074307866
1220.063282588801 3222.76843000836 1650.879961275638
1250.731052950356 3289.52005449072 1685.0738295704937
1251.7448453639772 3222.76843000836 1650.879961275638
1432.6703671752273 3673.1193898493516 1881.5745927049315
1442.0935475802346 3621.4981335829925 1855.13133455691
1418.2484780066454 3395.432632002732 1739.3281005983315
1649.8977212407297 3934.7857578202043 2015.6145564207663
1522.6790794364865 3549.4063791420435 1818.2019567984655
1695.8751560149944 3938.3458444592634 2017.438229396492
1751.5453893714378 4007.767533920918 2052.999852423142
1456.588944813895 3320.6708125824885 1701.030968108093
1485.1772903564354 3325.1209208813125 1703.31055932775
1694.4689809831725 3714.0603861985323 1902.5468319257766
1523.9475616522304 3328.6810075203716 1705.1342323034758
1812.8014579842938 3892.0647181514937 1993.7304807120586
1506.1746778391312 3222.76843000836 1650.879961275638
1444.95768289551 3040.3139897565748 1557.4167212696987
1653.5606027803599 3335.8011807984903 1708.781578254927
1642.2356566622002 3271.719621295424 1675.9554646918655
1501.6927600839915 2982.4625818718628 1527.782035414157
1537.4933087441716 3016.2834049429252 1545.1069286835507
1219.6176559958158 2371.017701613441 1214.5662018332778
1508.5127431774258 2692.315520788536 1379.1526878925172
1844.0960043342636 3282.399881212602 1681.4264836190423
-1867.6730266107957 3143.6897742046935 1603.4511540925855
-1963.5006377960863 3329.8703247314093 1698.4132655137673
-2084.1971269611436 3616.713086786924 1844.7185280861142
-1773.3007332782727 3220.299952890328 1642.5264726678088
-1792.3827026708232 3319.1805323566696 1692.9608954800153
-1713.4410302519714 3181.9948635475107 1622.9888133801971
-1670.2468068464211 3137.4540619860954 1600.2706049062301
-1634.321354315352 3124.0918215176707 1593.45514236404
-1713.8571353755221 3335.2152209187793 1701.1394505306434
-1661.2272837615246 3242.5703536710353 1653.885576904792
-1885.908521348223 3726.283458628006 1900.605320932073
-1425.2547399291188 2824.7776350249596 1440.7887814189824
-1982.749488473444 3941.860938185256 2010.5614499460728
-1568.6062008028441 3218.5183208278713 1641.61774432885
-1589.126361953171 3281.766259045081 1673.877600361883
-1472.7046520648807 3154.3795665794332 1608.9035241263375
-1570.9148834281577 3376.1927583552815 1722.040202326693
-1737.2288950460904 3838.5262785627724 1957.8552062864696
-1532.5712606809068 3422.5151919791533 1745.6671391396185
-1444.5548020484152 3320.9621644191266 1693.8696238189739
-1314.398480534101 3067.0795955190592 1564.3758355173625
-1385.095007813469 3306.7091079194734 1686.5997971073045
-1320.2784590223375 3164.1785429229444 1613.9015299906102
-1516.2096946274376 3662.144704379568 1867.8911007295605
-1327.8601915237443 3324.5254285440396 1695.6870804968912
-1335.204369844873 3356.5948056682587 1712.0441905981475
-1311.650599084385 3366.39378201177 1717.0421964624202
-1212.4839394979815 3124.9826375488988 1593.9095065335196
-1193.3755875214295 3225.6448490776975 1645.2526576846847
-1186.512827918866 3310.272372044387 1688.4172537852219
-1039.7423324014712 2983.3428885835983 1521.6656035863045
-1063.206557363546 3124.9826375488988 1593.9095065335196
-1089.9996768172452 3300.4733957008752 1683.4192479209491
-1050.5499869660423 3197.138736078392 1630.7130042613458
-918.9462681510793 2884.462309117256 1471.231180774098
-894.2816642880799 2882.6806770547996 1470.3224524351394
-966.3701534274012 3219.4091368590994 1642.0721084983293
-969.6022428857945 3361.9397018556283 1714.7703756150236
-886.0280533072075 3183.7764956099672 1623.8975417191557
-875.0090703358787 3242.5703536710353 1653.885576904792
-869.501440615979 3263.0591223892866 1664.335952802817
-210.2199053065 799.0619800117909 407.5646600229666
-816.172285106089 3142.798958173465 1602.9967899231062
-872.4413403151234 3381.537654542651 1724.766387343569
-853.3158335505149 3419.8427438854683 1744.3040466311804
-820.3541511038685 3310.272372044387 1688.4172537852219
-674.9610866693855 2820.323554868818 1438.5169605715857
-780.2321869272706 3283.5478911075375 1674.7863287008418
-685.5280841253895 2992.2510488958815 1526.209245281098
-649.6258439899984 2968.199016052717 1513.941412705156
-615.151516307589 2832.7949793060143 1444.8780589442965
-784.823635395838 3671.943680723079 1872.8891065938333
-669.7227795448276 3210.500976546816 1637.528466803536
-609.4182381366564 3182.8856795787387 1623.4431775496764
-562.8131084416239 2993.1418649271095 1526.6636094505773
-545.0593244260108 2925.4398465537583 1492.1319325701477
-558.394178836588 3141.908142142237 1602.542425753627
-548.3220329349473 3275.530546826483 1670.6970511755276
-593.893642509984 3584.643709662705 1828.361417984858
-148.0860251250457 1114.4108550666112 568.4095760186525
-163.34619956261903 1314.8444620929804 670.6415141515037
-124.67915161216999 1078.7782138174791 550.2350092394789
-133.15428570940944 1169.6414490027664 596.5801545263714
-124.89176920703949 1187.4577696273325 605.6674379159582
-111.26667755575414 1174.095529158908 598.8519753737681
-103.01347755942007 1107.2843268167849 564.7746626628177
-89.17024743278826 1206.1649062831268 615.2090854750244
-90.09661357652448 1248.0332597508573 636.5642014405532
-80.26711109522198 1264.0679483129668 644.7427564911814
-84.45106820159252 1367.4026079354503 697.4490001507846
-73.78868032571712 1390.5638247473864 709.2624685572474
-70.50087058902578 1373.6383201540484 700.62954933714
-103.12284437567018 3387.7733667612492 1727.9469365299244
-69.73932521581492 3208.7193444843597 1636.6197384645773
-37.18936235688559 3295.1284995135056 1680.693062904073
-31.416957126506464 3291.565235388592 1678.8756062261557
-2.770809098072169 3310.272372044387 1688.4172537852219
2.9515014488064226 3263.0591223892866 1664.335952802817
4.290926898126744 545.1794111117235 278.07087172135516
34.73151386116609 3059.062251238004 1560.2865579920483
66.09097318834635 3031.4469542699267 1546.201268738189
15.990259517236094 555.8692034864632 283.5232417551072
89.73607244757275 2941.4745351158676 1500.3104876207758
95.20153054936604 2952.1643274906073 1505.7628576545278
127.31503141685545 3108.9479489867895 1585.7309514828914
139.5711214142067 3269.2948346078847 1667.5165019891722
168.88413092271796 3286.2203392012225 1676.1494212092798
173.74911004033527 3270.1856506391127 1667.9708661586517
202.57323978765444 3276.4213628577113 1671.151415345007
206.74149388009002 3252.369330014547 1658.8835827690648
252.64747081802386 3496.4529225711026 1783.3793652064037
227.74285749480353 3077.769387893799 1569.8282055511145
297.34514722435296 3596.2243180686733 1834.2681521880895
264.6361153982089 3134.7816138924104 1598.907512397792
299.64340430265474 3218.5183208278713 1641.61774432885
313.0011822826228 3300.4733957008752 1683.4192479209491
330.1947717807135 3190.0122078285654 1627.078090905511
367.4303248698596 3225.6448490776975 1645.2526576846847
390.22207796394423 3374.411126292825 1721.1314739877341
68.78429202616601 569.2314439548878 290.3387042972973
407.921602771071 3281.766259045081 1673.877600361883
414.274953726222 3287.1111552324505 1676.603785378759
456.2617208896762 3387.7733667612492 1727.9469365299244
423.59853778080276 3105.3846848618764 1583.913494804974
539.0750640142716 3672.8344967543076 1873.3434707633126
504.8712629882458 3248.8060658896334 1657.0661260911475
538.7651528004609 3250.5876979520904 1657.9748544301062
547.3471609250603 3268.404018576656 1667.062137819693
563.7088944751347 3201.5928162345335 1632.9848251087426
655.3732477228722 3686.196737222732 1880.1589333055026
609.8410432581144 3271.9672827015697 1668.8795944976102
675.2415984010933 3433.204984353893 1751.1195091733705
701.9818539619396 3538.3212760388333 1804.7344811719324
636.0492894889827 3073.3153077376573 1567.5563847037179
720.4968516639564 3452.802937040916 1761.115520901916
693.5142321625342 3192.6846559222504 1628.4411834139491
726.0769703133415 3316.508084262985 1691.5978029715773
750.5297810893915 3299.582579669647 1682.9648837514699
760.6472798404353 3319.1805323566696 1692.9608954800153
834.0172706203285 3508.9243470082993 1789.7404635791142
802.8486616065597 3216.7366887654143 1640.7090159898912
844.8467151013755 3273.7489147640263 1669.788322836569
893.6661712510154 3440.3315126037196 1754.7544225292054
940.9428976827198 3508.0335309770708 1789.286099409635
1020.9314306759804 3782.404868595389 1929.2302636092713
846.3134217101976 3040.35511458221 1550.7449104329824
969.1919316657415 3460.8202813219705 1765.2047984272301
914.8289813591119 3171.305071172771 1617.5364433464451
1007.98460713917 3376.1927583552815 1722.040202326693
1057.781390796935 3523.177403507952 1797.0102902907838
1092.5341512978823 3540.10290810129 1805.6432095108912
1044.007418593896 3364.6121499493133 1716.1334681234614
1205.2620122535413 3782.404868595389 1929.2302636092713
1082.961143570095 3295.1284995135056 1680.693062904073
1220.272999089244 3694.214081503787 1884.2482108308168
268.66071641657936 797.2803479493342 406.65593168400795
1244.0419915631262 3673.7253127855356 1873.797834932792
1347.3491771677338 3865.250759499622 1971.4861313708498
1148.7656123996328 3279.9846269826244 1672.9688720229244
1173.950315055648 3274.6397307952543 1670.2426870060483
1288.0373719588904 3496.4529225711026 1783.3793652064037
1194.2403649185144 3227.426481140154 1646.1613860236434
1293.7080128325786 3405.5896873858155 1737.034219919511
1194.0145528547853 3076.8785718625704 1569.3738413816352
1317.0708439696662 3379.7560224801946 1723.8576590046102
1403.8172872856499 3528.5222996953216 1799.7364753076597
1345.8628714387953 3369.066230105455 1718.4052889708582
1406.2806940159044 3450.130488947231 1759.752428393478
1419.16837737871 3467.946809571797 1768.8397117830648
1391.1103026738838 3333.433588856323 1700.2307221916847
1542.2779189113369 3532.085563820235 1801.553931985577
1471.033809718241 3356.5948056682587 1712.0441905981475
1529.2044530032656 3354.813173605802 1711.1354622591887
1812.8014579842938 3895.538504561384 1986.9345131331472
1852.2692888195243 3953.441546591224 2016.4681841493043
1227.3939182154156 2366.8981949736103 1207.2455983066025
1227.8050840175556 2360.662482755012 1204.065049120247
1512.2736170223297 2716.0980792151063 1385.356352742503
1848.1151161043106 3301.3642117321037 1683.8736120904284
1802.9227838555705 3203.37444829699 1633.8935534477012
1540.9356230217688 2716.0980792151063 1385.356352742503
-1887.4069589247717 3133.1094195384626 1591.1698102966127
-1951.3682624520332 3279.333080552779 1665.4304388932674
-2015.2931958133856 3438.039249214659 1746.030389443295
-1867.5638295282367 3243.6687729883115 1647.3180904550588
-1844.303372404302 3245.451988366535 1648.2237078769692
-1895.2918259382543 3389.0008263135164 1721.1259103407583
-2060.756951729467 3745.6439019581903 1902.249394722843
-1784.5545757733196 3252.5848498794285 1651.846177564611
-1858.0428703078587 3493.3189259395836 1774.104529522518
-1713.3993743885094 3337.2875803450384 1694.863005105356
-1708.6909204404253 3338.1791880341502 1695.3158138163112
-1395.8337992096817 2760.417405489778 1401.8957691173343
-1558.5646178733405 3140.2422810513563 1594.7922799842545
-1397.0613739015698 2823.721551416708 1434.0451875951544
-1631.4280344632264 3307.8645266043527 1679.920317643834
-1495.1791447227959 3080.504565880873 1564.4540963502552
-1458.8559598603758 3015.41720457572 1531.3990604505248
-1580.2712425994196 3320.3470342519163 1686.259639597207
-1403.9494247313637 3083.1793889482083 1565.8125224831208
-1563.6854091278383 3495.102141317807 1775.0101469444285
-1515.324749415036 3461.2210491315627 1757.8034159281306
-1559.1706954719352 3574.455225648747 1815.3101222194423
-1323.5607121730259 3091.2038581502134 1569.8878008817178
-1394.6528376408912 3269.5253959725505 1660.44954307276
-1260.4347563470571 3023.441673777725 1535.4743388491218
-1184.607798521527 2909.3158895714296 1477.5148238468546
-1232.5307093072413 3179.4730193722703 1614.7158632662838
-1259.3189262857682 3318.563818873693 1685.3540221752967
-1339.4522761174444 3545.032171908061 1800.3674347579204
-1195.616801348752 3249.018419122982 1650.0349427207902
-1106.6502982221004 3076.0465274353146 1562.1900527954792
-1069.968914519946 2987.7773662132577 1517.3619904109132
-1154.4821256267705 3299.8400574023476 1675.8450392452373
-1157.767687893029 3405.9413724066385 1729.7292758489075
-1097.830366405922 3245.451988366535 1648.2237078769692
-1023.6203132962523 3117.952088823564 1583.4720622103741
-961.990630307522 3006.501127684603 1526.8709733409728
-1020.8306752746856 3207.1128577347326 1628.7529333058953
-1041.0256580263278 3358.686164883719 1705.7304141682812
-1159.9650596480537 3867.7941553664914 1964.2841881237068
-967.6139069371116 3244.5603806774234 1647.770899166014
-862.7564549884511 3047.515081383741 1547.7001740449125
-908.1092201980442 3246.3435960556467 1648.6765165879247
-872.3930384969399 3137.567457984021 1593.4338538513887
-898.8073939521568 3333.7211495885917 1693.0517702615352
-927.3356787393259 3461.2210491315627 1757.8034159281306
-209.56535094710037 802.4469202005168 407.52783985969023
-899.2238299907506 3465.679087577121 1760.0674594829065
-871.5220132968777 3380.9763571115113 1717.0506319421615
-757.7373473752814 3039.4906121817357 1543.6248956463155
-812.6274570003606 3282.007903620114 1666.788865026133
-777.7189021383191 3252.5848498794285 1651.846177564611
-757.7748664357163 3310.539349671688 1681.2787437766997
-779.4730264922009 3564.6475410685184 1810.329226398935
-604.3114536847335 2899.508204991201 1472.5339280263474
-672.3374362242768 3252.5848498794285 1651.846177564611
-624.540539117304 3151.833181009808 1600.678793226672
-546.0627183094327 2906.6410665040944 1476.156397713989
-561.8227202137779 3018.092027643055 1532.7574865833903
-597.6575064100141 3365.8190263966126 1709.352883855923
-544.994538973022 3099.2283273522185 1573.9630792803148
-461.0855931016744 2756.8509747333314 1400.0845342735136
-562.6050112445474 3398.808510893745 1726.1068061612657
-434.9846938448159 2772.0083054482297 1407.7822823597521
-498.98074289490154 3215.1373269367377 1632.828211704492
-212.68508694044576 1504.1421715314134 763.8882953814416
-175.90394351384325 1324.9290260199646 672.8737444794441
-125.50279588376152 1086.8697730271444 551.9738186544026
-156.6819279672792 1377.533879677554 699.5894584258016
-125.73499945674943 1196.537518787882 607.6692901018937
-155.04913101899461 1552.2889867434444 788.339965773023
-147.3143796166851 1555.855417499891 790.1512006168438
-104.09085101740273 1119.859257524277 568.7277409597455
-102.11815620586061 1211.6948495027805 615.3670381881323
-80.47713616164494 1089.5445960944796 553.3322447872682
-78.3924139541637 1086.8697730271444 551.9738186544026
-72.60692695727195 1369.5094104755487 695.5141800272047
-70.0436664996028 1365.9429797191021 693.7029451833838
-95.80147493537807 3150.0499656315847 1599.7731758047616
-74.32794822418475 3422.88191849976 1738.3326413570564
-65.91533874443329 3299.8400574023476 1675.8450392452373
-32.012136287225125 3356.9029495054956 1704.8247967463708
2.916853738651174 3227.6198345843013 1639.167533657865
29.549791589750903 3076.9381351244265 1562.6428615064344
34.93379408167376 3079.6129581917617 1564.0012876393
63.296429378475075 3158.0744348335897 1603.8484542033586
64.8285831627094 2976.186466254806 1511.4754771684954
102.48174718346361 3362.2525956401655 1707.541649012102
98.44769016073549 3055.539550585746 1551.7754524435093
131.91150533047258 3224.0534038278543 1637.3562988140443
139.76127280577919 3276.6582574854438 1664.0720127604018
25.224290182106778 526.9401442650061 267.6099481745299
173.37061637417537 3376.518318665953 1714.7865883873853
175.31100615347367 3302.514880469683 1677.203465378103
204.72124314592483 3314.1057804281345 1683.0899786205207
211.55470313229696 3331.0463265212566 1691.6933441286697
241.1899032050611 3262.392534459657 1656.8270733851184
269.3562554866135 3260.6093190814336 1655.921455963208
301.21916535489675 3238.3191268536416 1644.6012381893277
305.6513569496705 3225.836619206078 1638.2619162359547
337.03881082442877 3205.329642356509 1627.8473158839847
358.2978395789766 3148.2667502533614 1598.8675583828513
384.6592500309841 3329.2631111430333 1690.7877267067593
392.41969604252864 3159.857650211813 1604.754071625269
382.27810770671704 3035.9241814252887 1541.8136608024947
441.6248736773332 3282.007903620114 1666.788865026133
416.55071357217207 3056.431158274858 1552.2282611544645
84.00782122640376 586.677859435489 297.94813180852907
492.80699514614633 3400.591726271968 1727.012423583176
527.5692173896643 3597.6370255656507 1827.0831487042778
511.7929967829846 3296.273626645901 1674.0338044014163
534.6891240205898 3405.9413724066385 1729.7292758489075
489.1556457188071 2953.896274027014 1500.1552593946153
556.4472363724379 3325.6966803865866 1688.9764918629385
587.5869379052334 3307.8645266043527 1679.920317643834
582.4455158588253 3127.7597734037927 1588.4529580308815
560.1636754280838 2980.6445047003645 1513.7395207232717
638.4484651202864 3249.018419122982 1650.0349427207902
695.2295277283924 3362.2525956401655 1707.541649012102
640.3796836899716 3071.588488989756 1559.926009240703
747.8885344051882 3446.063718416664 1750.105667841892
742.654070092185 3395.242080137298 1724.295571317445
755.4642349767281 3181.2562347504936 1615.6214806881942
840.4151912636216 3513.825902789152 1784.519129874488
815.0515025172124 3290.923980511231 1671.3169521356851
916.0167504345129 3673.423679140144 1865.5718891354709
837.4821880086168 3125.0849503364575 1587.0945318980157
932.2070552828017 3456.7630106860042 1755.5393723733544
968.8094165314217 3483.511241359355 1769.1236337020107
936.5113285645286 3347.095264925267 1699.8439009258634
1017.875728978495 3531.658056571386 1793.5753040935922
906.4663118755847 3126.868165714681 1588.0001493199263
1152.460180263968 3841.9375323822524 1951.1527355060057
1028.5283570526574 3317.6722111845816 1684.9012134643415
1246.3694868035889 3977.461901127229 2019.9796595711978
1051.694713942386 3303.4064881587947 1677.6562740890581
1024.1048879942384 3199.979996221839 1625.1304636182535
1136.7668856543653 3343.52883416882 1698.0326660820426
1168.4892725702196 3355.1197341272723 1703.9191793244604
1162.1813976612254 3321.238641941028 1686.7124483081623
1302.8709050727966 3620.8188254825545 1838.8561751891134
1486.5756165538276 4038.982831675935 2051.2234606271077
1240.9536232462178 3283.7911189983374 1667.6944824480433
1241.255817700732 3270.417003661662 1660.9023517837152
1396.2434218241106 3601.2034563220973 1828.8943835480986
1604.058834197135 4035.4164009194883 2049.4122257832864
1487.1393283296472 3726.0285327977335 1892.2876030818284
1360.8933749474852 3341.745618790597 1697.1270486601322
1394.379410088252 3410.3994108521965 1731.9933194036835
1561.3744711999766 3744.752294269079 1901.7965860118877
1694.2164805407078 3971.2206473034466 2016.8099985945114
1568.878720512669 3663.615994559915 1860.5909933149635
1345.4575842406846 3084.0709966373197 1566.265331194076
1757.8368398309417 3846.395570827811 1953.416779060782
1483.7102497815004 3117.0604811344524 1583.019253499419
1625.0314667810917 3294.4904112676777 1673.128186979506
1583.035943254355 2807.672613012697 1425.8946307979606
-1976.2935260994782 3228.691010970367 1632.6292768657397
-2040.2038871024702 3440.1890125181776 1739.5759707897807
-1974.2198753545224 3379.506041609945 1708.8908434191696
-1907.0917060740514 3315.2534841776987 1676.40070855617
-2133.0343159945423 3766.8061794654286 1904.7341563433629
-1892.6644598471444 3396.46157759901 1717.464629008017
-1796.4181542695355 3390.214801181986 1714.3058658963364
-1620.8068635040759 3103.755482629889 1569.454014632129
-1496.1527775353281 2873.5171518310067 1453.0310313730463
-1412.0431911972958 2761.075176324576 1396.1732953627968
-1405.47826293231 2790.5242651476888 1411.064607175005
-1674.0230709461666 3333.9938134287704 1685.8769978912117
-1671.885887933991 3382.183231502955 1710.2445990384615
-1573.8223545401313 3193.887542361234 1615.030453814948
-1590.4204387951524 3290.2663785096033 1663.7656561094477
-1706.9959477608672 3601.7128027297963 1821.2525598203774
-1558.3802121680624 3343.8101763698082 1690.840768495281
-1525.73553717653 3284.9119987235827 1661.0581448708645
-1735.1920213992091 3800.7172514435583 1921.8817275210572
-1477.0294988932044 3246.538943590436 1641.654314327684
-1392.3656314176799 3183.178782789193 1609.6154313377815
-1470.4974805635788 3374.1516618239243 1706.1833321805864
-1425.8722988076872 3333.1014167977673 1685.4257460181143
-1215.3163902070228 2906.5358271781333 1469.7273506776435
-1515.4209677460783 3638.301064600936 1839.7538866173634
-1264.043187872759 3094.8315163198545 1564.9414959011567
-1345.0725999148813 3306.3295178676644 1671.8881898251977
-1318.9650937777385 3308.1143111296715 1672.7906935713922
-1176.7628225743958 3103.755482629889 1569.454014632129
-1179.7690822342279 3125.1730017739706 1580.2840595864623
-1215.7863966767613 3292.05117177161 1664.6681598556422
-1195.9449069473658 3252.7857200074595 1644.8130774393646
-1068.6917209484511 2986.851523968441 1510.3400192563931
-1028.771156529881 2943.1240890492736 1488.2286774746294
-1203.6670715797263 3459.821738400253 1749.5035119979195
-1125.27612556607 3329.5318302737537 1683.6207385257255
-1116.7715987039846 3387.5376112889758 1712.9521102770448
-1083.6266513648059 3303.6523279746543 1670.534434205906
-906.3594995513041 2835.14409669786 1433.6272008298658
-979.6750617741791 3163.546056907118 1599.6878901296427
-944.7110548032674 3152.8372973350765 1594.272867652476
-942.0874065067839 3161.761263645111 1598.7853863834482
-937.487701189789 3256.355306531473 1646.6180849317534
-806.3491098325396 2885.118308034051 1458.8973057233102
-876.6074976201136 3155.514487228087 1595.6266232717676
-867.5570700115896 3220.6594412913364 1628.5680100078648
-851.7988531067516 3285.804395354586 1661.5093967439618
-860.7199208324913 3342.025383107801 1689.9382647490866
-843.0911582852573 3384.8604213959657 1711.5983546577531
-698.7139096457868 2824.435337125819 1428.2121783526993
-857.4521448465788 3589.2192498957484 1814.9350335970164
-698.9491810184068 2946.6936755732872 1490.0336849670184
-706.7531275159939 3090.3695331648373 1562.6852365356706
-749.7040187241669 3302.759931343651 1670.083182332809
-692.7132724179064 3170.685229955145 1603.2979051144205
-743.5982480145824 3430.37264957714 1734.6122001857113
-672.6960216293774 3230.4758042323742 1633.5317806119342
-687.081678246739 3326.854640380743 1682.266982906434
-653.995942050542 3332.209020166764 1684.9744941450172
-576.2624769814585 3098.401102843868 1566.7465033935457
-501.55734577666874 2827.112527018829 1429.565933971991
-497.1742471471383 2829.789716911839 1430.9196895912826
-513.8748233597574 3075.1987904377793 1555.013954693018
-506.19962120635057 3228.691010970367 1632.6292768657397
-167.97821615914324 1335.917756612117 675.5240540265374
-166.55557611229108 1343.0569296601445 679.1340690113152
-157.93378907767857 1368.9364319592437 692.2203733311345
-138.42772276720785 1218.121401319666 615.9588067777045
-120.39454120858646 1146.7296708393924 579.8586569299268
-155.04913101899461 1553.6625345769512 785.6295110622589
-106.41134769613464 1145.837274208389 579.4074050568297
-99.63846587856598 1183.3179327105327 598.3599837269129
-92.21456459550396 1118.1729786472831 565.4185969908159
-93.95514092455551 1303.7914778959941 659.2789865950375
-76.8731529093775 1212.7670215336454 613.2512955391211
-109.97894810096642 1783.900865375833 902.0524943213416
-105.65249709363333 1763.3757428627546 891.6737012401055
-69.43982792983886 1310.9306509440214 662.8890015798153
-88.37755048546488 1725.0026877296075 872.2698706969251
-116.01659930840493 3107.3250691539024 1571.2590221245177
-72.75968466436215 3353.6265393108456 1695.8045390993504
-68.85401231720591 3450.005375459215 1744.5397413938501
-37.159200668031666 3298.297948188634 1667.8269229673228
-2.926648468765679 3502.656776688417 1771.163601906586
2.945861123897429 3262.6020829484974 1649.776848043434
29.70391974061022 3095.723912950858 1565.392747774254
59.096920371151064 2951.1556587283044 1492.2899443325045
15.046557096773487 557.7478943771364 282.03242068576213
95.82355888859526 3146.590520918053 1591.1141045407956
98.7924150752172 3068.9520140207555 1551.8551915813375
21.202229125537578 541.6847550190748 273.90988697001217
134.39214204575802 3287.5891886165928 1662.411900490156
137.7836983334253 3233.1529941253843 1634.8855362312258
163.66515805061445 3190.3179558372203 1613.2254463225593
164.4723937319981 3101.0782927368787 1568.1002590128373
202.94889964765088 3705.2308119261925 1873.5977770996549
226.75204682049304 3673.996929841073 1857.8039615412522
194.7367837451738 3068.9520140207555 1551.8551915813375
258.69813636118164 3586.542060002738 1813.5812779777245
228.27019262069598 3090.3695331648373 1562.6852365356706
280.35334987340804 3326.854640380743 1682.266982906434
312.7477400297623 3303.6523279746543 1670.534434205906
337.7557802381328 3268.848859365521 1652.9356111551147
345.28899590163314 3286.6967919855892 1661.960648617059
386.50707192192635 3399.13876749202 1718.8183846273087
362.09889230286797 3136.774157977015 1586.1503339367262
419.76948862788544 3383.0756281339586 1710.6958509115586
382.6149166121855 3041.2877184596496 1537.8663835153236
452.1543772468064 3320.6078639637194 1679.1082197947533
466.96499225437145 3225.1214244463536 1630.8242693733507
443.89033284706574 3029.686562256605 1532.0001091650597
554.4319810217128 3697.1992422471617 1869.5365102417798
507.22465247845696 3269.7412559965246 1653.3868630282118
510.3341743924268 3253.678116638463 1645.2643293124618
550.1339981733399 3325.0698471187366 1681.3644791602394
540.9323536424827 3235.8301840183944 1636.2392918505175
631.7990735856386 3740.9266771663292 1891.6478520235437
668.8354821492724 3768.590972727435 1905.6366600895574
632.0482751165815 3366.1200921448935 1702.1220653227115
593.7710889935925 3024.3321824705845 1529.2925979264764
650.7294023886861 3285.804395354586 1661.5093967439618
772.8987327357526 3836.413116683695 1939.931802444946
636.4180137147735 3080.5531702238 1557.7214659316012
645.2127379064996 3097.5087062128646 1566.2952515204483
738.7939002222532 3407.170337171051 1722.8796514851836
787.4078642854685 3467.8533080792836 1753.5647788557944
797.5976710511488 3486.5936373303553 1763.041068190836
768.3369535962519 3215.305061505316 1625.8604987692813
803.7896150535499 3248.3237368524424 1642.5568180738785
963.0103100842617 3738.249487273319 1890.2940964042518
940.8717380390028 3628.4847016598987 1834.790116013294
839.632641558425 3135.881761346012 1585.6990820636288
910.3265182617197 3378.6136449789415 1708.4395915460725
932.110211605225 3354.518935941849 1696.2557909724476
849.9451508842166 3040.395321828646 1537.4151316422265
886.5638579222285 3060.9204443417248 1547.7939247234624
966.2290442576793 3242.0769604354186 1639.3980549621979
1047.8855851181775 3496.4100002713926 1768.0048387949055
987.6194086936698 3188.5331625752133 1612.3229425763648
1202.1395718072888 3779.2997322994765 1911.0516825667241
996.7117229768388 3117.14143209494 1576.2227927285874
1017.9659086761883 3102.8630859988853 1569.0027627590318
1114.630251897612 3297.4055515576306 1667.3756710942255
1128.582164077654 3322.392657225726 1680.0107235409478
1197.0571739989891 3440.1890125181776 1739.5759707897807
1343.7624912018518 3843.5522897317223 1943.5418174297238
1349.2090712003833 3823.0271672186436 1933.1630243484879
1206.5245621001736 3371.474471930914 1704.8295765612947
1381.47306506857 3842.659893100719 1943.0905655566266
1200.4180144269096 3264.386876210504 1650.6793517896285
1195.888502325247 3237.6149772804015 1637.141795596712
1452.2689291580289 3897.0960875919277 1970.616929815557
1195.233246488273 3151.9449007040735 1593.8216157793788
1354.760576907326 3497.302396902396 1768.4560906680026
1398.6500870726898 3595.466026312772 1818.0937967086968
1570.7443113481445 3955.1018686071498 1999.9483015668764
1429.4899932759495 3584.757266740731 1812.6787742315303
1336.5657719268124 3284.9119987235827 1661.0581448708645
1452.0782582159782 3485.7012406993517 1762.589816317739
1531.5947179307748 3662.3957736380285 1851.9376871909883
1713.2355250012008 4019.354426039396 2032.438436429876
1490.606601334013 3483.9164474373447 1761.6873125715445
1328.927571199812 3037.718131935636 1536.0613760229348
1485.9723531457055 3335.7786066907775 1686.779501637406
1637.7080831154294 3663.288170269032 1852.3889390640854
1682.225100651602 3723.078744546261 1882.6228145615992
1423.755511572308 3096.6163095818615 1565.8439996473512
1801.254664506171 3890.8493111749035 1967.4581667038765
1406.1336715030243 3027.0093723635946 1530.646353545768
1534.5366942273786 3174.2548164791588 1605.1029126068092
1477.1197250472478 2932.4153294772323 1482.813654997463
1535.0951680722233 2896.7194642370955 1464.763580073574
1264.8122373131143 2346.1107429079866 1186.3411743725896
1437.3857749108388 2621.861301888043 1325.7780031596305
-1976.2935260994782 3231.535567581897 1626.9916642236203
